ncols        128
nrows        52
xllcorner    726726
yllcorner    7134230
cellsize     80.000000000000
NODATA_value -9999
-9999 -9999 -9999 -9999 -9999 -9999 -9999 -9999 -9999 -9999 -9999 -9999 -9999 -9999 -9999 -9999 -9999 -9999 -9999 -9999 -9999 -9999 -9999 -9999 -9999 -9999 -9999 -9999 -9999 -9999 -9999 -9999 -9999 -9999 -9999 -9999 -9999 -9999 -9999 -9999 -9999 -9999 -9999 -9999 -9999 -9999 -9999 -9999 -9999 -9999 -9999 -9999 -9999 -9999 -9999 -9999 -9999 -9999 274.8475341796875 270.7982177734375 270.0115966796875 -9999 -9999 266.90557861328125 268.40350341796875 267.999053955078125 270.017547607421875 275.192291259765625 281.397064208984375 285.740936279296875 289.948211669921875 295.310333251953125 301.787261962890625 306.52703857421875 -9999 -9999 -9999 -9999 -9999 -9999 -9999 -9999 -9999 -9999 -9999 -9999 -9999 -9999 -9999 -9999 -9999 -9999 -9999 -9999 -9999 -9999 -9999 -9999 -9999 -9999 -9999 -9999 -9999 -9999 -9999 -9999 -9999 -9999 -9999 -9999 -9999 -9999 -9999 -9999 -9999 -9999 -9999 -9999 -9999 -9999 -9999 -9999 -9999 -9999 -9999 -9999 -9999 -9999
-9999 -9999 -9999 -9999 -9999 -9999 -9999 -9999 -9999 -9999 -9999 -9999 -9999 -9999 -9999 -9999 -9999 -9999 -9999 -9999 -9999 -9999 -9999 -9999 -9999 -9999 -9999 -9999 -9999 -9999 -9999 -9999 -9999 -9999 -9999 -9999 -9999 -9999 -9999 -9999 -9999 -9999 -9999 -9999 -9999 -9999 -9999 -9999 -9999 -9999 -9999 -9999 -9999 -9999 -9999 -9999 279.908294677734375 272.59039306640625 270.285308837890625 269.508880615234375 269.13433837890625 268.8116455078125 271.779815673828125 268.2294921875 267.018890380859375 267.416595458984375 270.537078857421875 272.9002685546875 278.1165771484375 283.489654541015625 288.19879150390625 293.597747802734375 300.067779541015625 306.68048095703125 308.703155517578125 -9999 -9999 -9999 -9999 -9999 -9999 -9999 -9999 309.15753173828125 -9999 -9999 -9999 -9999 -9999 -9999 -9999 -9999 -9999 -9999 -9999 -9999 -9999 -9999 -9999 -9999 -9999 -9999 -9999 -9999 -9999 -9999 -9999 -9999 -9999 -9999 -9999 -9999 -9999 -9999 -9999 -9999 -9999 -9999 -9999 -9999 -9999 -9999 -9999 -9999 -9999 -9999 -9999 -9999
-9999 -9999 -9999 -9999 -9999 -9999 -9999 -9999 -9999 -9999 -9999 -9999 -9999 -9999 -9999 -9999 -9999 -9999 -9999 -9999 -9999 -9999 -9999 -9999 -9999 -9999 -9999 -9999 -9999 -9999 -9999 -9999 -9999 -9999 -9999 -9999 -9999 -9999 -9999 -9999 -9999 -9999 -9999 -9999 -9999 -9999 -9999 -9999 -9999 -9999 -9999 -9999 290.565521240234375 286.155517578125 284.66693115234375 282.742706298828125 277.2391357421875 274.15460205078125 272.205718994140625 271.10595703125 272.90704345703125 268.88671875 269.13861083984375 268.90557861328125 266.947235107421875 267.026275634765625 268.36639404296875 272.049407958984375 277.631927490234375 283.26141357421875 286.87371826171875 291.363250732421875 298.7755126953125 306.58355712890625 309.38238525390625 -9999 -9999 308.95257568359375 -9999 -9999 -9999 -9999 -9999 307.62188720703125 306.297332763671875 306.643890380859375 302.062225341796875 297.662200927734375 289.215240478515625 280.687713623046875 -9999 -9999 -9999 -9999 -9999 -9999 -9999 -9999 -9999 -9999 -9999 -9999 -9999 -9999 -9999 -9999 -9999 -9999 -9999 -9999 -9999 -9999 -9999 -9999 -9999 -9999 -9999 -9999 -9999 -9999 -9999 -9999 -9999 -9999 -9999 -9999 -9999 -9999
-9999 -9999 -9999 -9999 -9999 -9999 -9999 -9999 -9999 -9999 -9999 -9999 -9999 -9999 -9999 -9999 -9999 -9999 -9999 -9999 -9999 -9999 -9999 -9999 -9999 -9999 -9999 -9999 -9999 -9999 -9999 -9999 -9999 -9999 -9999 -9999 -9999 -9999 -9999 -9999 -9999 -9999 -9999 -9999 -9999 -9999 -9999 -9999 -9999 -9999 -9999 -9999 293.360198974609375 288.501708984375 283.735626220703125 282.20550537109375 279.1602783203125 277.77301025390625 274.71368408203125 269.73760986328125 269.13671875 267.57879638671875 266.779449462890625 266.099609375 266.03863525390625 266.69366455078125 269.04937744140625 272.49658203125 276.90081787109375 280.92828369140625 284.233489990234375 289.168426513671875 297.1795654296875 305.40936279296875 310.6171875 312.17926025390625 309.78131103515625 307.6767578125 313.04351806640625 -9999 -9999 312.670440673828125 310.5931396484375 305.20501708984375 303.396331787109375 302.594146728515625 299.558013916015625 295.98388671875 288.406005859375 279.466949462890625 270.07025146484375 -9999 -9999 -9999 -9999 -9999 -9999 -9999 -9999 -9999 -9999 -9999 -9999 -9999 -9999 -9999 -9999 -9999 -9999 -9999 -9999 -9999 -9999 -9999 -9999 -9999 -9999 -9999 -9999 -9999 -9999 -9999 -9999 -9999 -9999 -9999 -9999 -9999
-9999 -9999 -9999 -9999 -9999 -9999 -9999 -9999 -9999 -9999 -9999 -9999 -9999 -9999 -9999 -9999 -9999 -9999 -9999 -9999 -9999 -9999 -9999 -9999 -9999 -9999 -9999 -9999 -9999 -9999 -9999 -9999 -9999 -9999 -9999 -9999 -9999 -9999 -9999 -9999 -9999 -9999 -9999 -9999 -9999 -9999 -9999 -9999 -9999 -9999 -9999 -9999 -9999 287.151824951171875 284.710968017578125 283.896942138671875 281.5369873046875 275.918701171875 271.401641845703125 271.726531982421875 273.644012451171875 271.01348876953125 267.64447021484375 268.33282470703125 264.27032470703125 266.31951904296875 266.885040283203125 263.9041748046875 270.00506591796875 275.599700927734375 281.5843505859375 287.660614013671875 295.372161865234375 303.744659423828125 311.984283447265625 310.81512451171875 308.098175048828125 306.468536376953125 309.6138916015625 317.7471923828125 313.56109619140625 310.842987060546875 307.983306884765625 303.8311767578125 302.18353271484375 300.08154296875 297.7279052734375 291.831878662109375 283.45159912109375 277.11102294921875 267.464508056640625 263.570556640625 263.40521240234375 -9999 -9999 -9999 290.00103759765625 308.311187744140625 327.121917724609375 -9999 -9999 -9999 -9999 -9999 -9999 -9999 -9999 -9999 -9999 -9999 -9999 -9999 -9999 -9999 -9999 -9999 -9999 -9999 -9999 -9999 -9999 -9999 -9999 -9999 -9999 -9999 -9999 -9999
-9999 -9999 -9999 -9999 -9999 -9999 -9999 -9999 -9999 -9999 -9999 -9999 -9999 -9999 -9999 -9999 -9999 -9999 -9999 -9999 -9999 -9999 -9999 -9999 -9999 -9999 -9999 -9999 -9999 -9999 -9999 -9999 -9999 -9999 -9999 -9999 -9999 -9999 -9999 -9999 -9999 -9999 -9999 -9999 -9999 -9999 -9999 -9999 -9999 -9999 -9999 -9999 -9999 290.48486328125 288.310791015625 286.343475341796875 284.77032470703125 281.327911376953125 279.5838623046875 276.906494140625 276.3638916015625 273.61279296875 269.529022216796875 266.997711181640625 264.27032470703125 263.294281005859375 263.904083251953125 265.703765869140625 271.84051513671875 276.1531982421875 281.978485107421875 287.701263427734375 295.815765380859375 301.2362060546875 306.836944580078125 308.762420654296875 305.694610595703125 304.427520751953125 305.55352783203125 310.59564208984375 311.159454345703125 307.718048095703125 304.01873779296875 301.55517578125 299.47283935546875 298.253631591796875 295.166748046875 288.9432373046875 281.162261962890625 272.530487060546875 264.843841552734375 263.055145263671875 263.034515380859375 264.082611083984375 267.189300537109375 279.037628173828125 294.683197021484375 312.827850341796875 323.251983642578125 -9999 -9999 -9999 -9999 -9999 -9999 -9999 -9999 -9999 -9999 -9999 -9999 -9999 -9999 -9999 -9999 -9999 -9999 -9999 -9999 -9999 -9999 -9999 -9999 -9999 -9999 -9999 -9999 -9999
-9999 -9999 -9999 -9999 -9999 -9999 -9999 -9999 -9999 -9999 -9999 -9999 -9999 -9999 -9999 -9999 -9999 -9999 -9999 -9999 -9999 -9999 -9999 -9999 -9999 -9999 -9999 -9999 -9999 -9999 -9999 -9999 -9999 -9999 -9999 -9999 -9999 -9999 -9999 -9999 308.878509521484375 -9999 -9999 -9999 -9999 -9999 -9999 -9999 -9999 -9999 -9999 -9999 288.8541259765625 290.653045654296875 287.89666748046875 286.585174560546875 284.384429931640625 284.622314453125 280.095794677734375 273.321258544921875 269.32843017578125 269.09356689453125 269.093475341796875 263.786102294921875 262.650634765625 261.195587158203125 262.42230224609375 264.6368408203125 268.7340087890625 274.45367431640625 279.7191162109375 285.548248291015625 288.2662353515625 293.7440185546875 297.69476318359375 303.02081298828125 303.7333984375 300.2835693359375 299.422454833984375 302.0791015625 305.611419677734375 302.8994140625 300.7503662109375 300.242523193359375 297.51336669921875 296.053466796875 291.51043701171875 285.703460693359375 265.48236083984375 269.635772705078125 263.95135498046875 263.034637451171875 263.04400634765625 264.55511474609375 272.868865966796875 284.13641357421875 295.88671875 309.63323974609375 318.67138671875 327.805389404296875 330.197601318359375 335.59222412109375 -9999 -9999 -9999 -9999 -9999 -9999 -9999 -9999 -9999 -9999 -9999 -9999 -9999 -9999 -9999 -9999 -9999 -9999 -9999 -9999 -9999 -9999 -9999 -9999 -9999 -9999
-9999 -9999 -9999 -9999 -9999 -9999 -9999 -9999 -9999 -9999 -9999 -9999 -9999 -9999 -9999 -9999 -9999 -9999 -9999 -9999 -9999 -9999 -9999 -9999 -9999 -9999 -9999 -9999 -9999 -9999 -9999 -9999 -9999 -9999 -9999 -9999 -9999 332.630828857421875 327.99334716796875 316.461273193359375 308.068817138671875 306.86712646484375 -9999 -9999 -9999 -9999 293.57293701171875 294.848876953125 294.28961181640625 292.528839111328125 293.139007568359375 293.11962890625 287.732513427734375 285.982452392578125 287.17901611328125 287.212493896484375 286.123748779296875 284.953826904296875 277.99053955078125 272.330963134765625 269.151397705078125 272.00103759765625 273.81707763671875 269.444854736328125 262.24114990234375 260.925537109375 260.9256591796875 263.55438232421875 266.793792724609375 272.640716552734375 276.363800048828125 278.01483154296875 280.753448486328125 284.024322509765625 288.135772705078125 292.58087158203125 295.7032470703125 297.499542236328125 291.619720458984375 291.7071533203125 295.857025146484375 296.794464111328125 298.289459228515625 297.382080078125 296.209259033203125 292.56695556640625 287.287994384765625 283.506195068359375 273.80548095703125 265.482269287109375 263.30999755859375 263.034759521484375 263.573455810546875 272.9434814453125 282.63720703125 287.17108154296875 295.437957763671875 304.116790771484375 314.78240966796875 322.805755615234375 326.570831298828125 332.199188232421875 -9999 -9999 -9999 -9999 -9999 -9999 -9999 -9999 -9999 -9999 -9999 -9999 -9999 -9999 -9999 -9999 -9999 -9999 -9999 -9999 -9999 -9999 -9999 -9999 -9999 -9999
-9999 -9999 -9999 -9999 -9999 -9999 -9999 -9999 -9999 -9999 -9999 -9999 -9999 -9999 -9999 -9999 -9999 -9999 -9999 -9999 -9999 -9999 -9999 -9999 -9999 -9999 -9999 -9999 -9999 -9999 -9999 -9999 -9999 -9999 -9999 322.120208740234375 325.687408447265625 329.216827392578125 329.344482421875 321.519073486328125 311.602874755859375 304.9073486328125 305.59613037109375 300.562896728515625 297.161865234375 288.530059814453125 289.987945556640625 289.69281005859375 290.59307861328125 289.576141357421875 289.075286865234375 288.620880126953125 288.36004638671875 283.067108154296875 287.294158935546875 285.8018798828125 284.954925537109375 282.83599853515625 279.672454833984375 278.41131591796875 274.259979248046875 270.093109130859375 265.47137451171875 264.577392578125 264.11785888671875 261.190399169921875 260.925445556640625 266.335723876953125 266.11712646484375 265.5892333984375 269.233123779296875 272.673187255859375 275.420379638671875 272.053619384765625 279.6114501953125 283.159271240234375 285.467498779296875 286.94879150390625 285.874298095703125 284.564849853515625 288.834869384765625 290.392974853515625 292.6707763671875 293.867279052734375 295.213134765625 295.145050048828125 291.35760498046875 282.277679443359375 265.48236083984375 268.498931884765625 263.587554931640625 263.034881591796875 266.967620849609375 278.269439697265625 289.9462890625 293.181121826171875 295.892547607421875 301.958526611328125 311.24993896484375 319.33734130859375 322.604644775390625 326.503173828125 331.1446533203125 -9999 -9999 -9999 -9999 -9999 -9999 -9999 -9999 -9999 -9999 -9999 -9999 -9999 -9999 -9999 -9999 -9999 -9999 -9999 -9999 -9999 -9999 -9999 -9999 -9999
-9999 -9999 -9999 -9999 -9999 -9999 -9999 -9999 -9999 -9999 -9999 -9999 -9999 -9999 -9999 -9999 -9999 -9999 -9999 -9999 -9999 -9999 -9999 -9999 -9999 -9999 -9999 -9999 -9999 -9999 -9999 -9999 -9999 -9999 -9999 318.041656494140625 322.437652587890625 324.656097412109375 326.535064697265625 325.019378662109375 316.813018798828125 308.645538330078125 308.040924072265625 295.72607421875 294.72607421875 292.635498046875 288.530059814453125 288.005889892578125 289.897705078125 289.51220703125 289.377593994140625 288.789215087890625 290.735809326171875 283.067108154296875 281.07073974609375 281.618438720703125 281.272705078125 281.612640380859375 282.076629638671875 277.734466552734375 269.268280029296875 266.3175048828125 268.7315673828125 268.815948486328125 266.5941162109375 267.0869140625 262.53814697265625 260.925323486328125 263.864715576171875 264.050018310546875 264.663299560546875 268.9281005859375 269.23602294921875 272.053619384765625 274.598114013671875 279.302734375 274.55975341796875 272.85687255859375 276.290283203125 282.683868408203125 287.334503173828125 289.900848388671875 292.122589111328125 292.829986572265625 293.56732177734375 293.09686279296875 290.640716552734375 283.180206298828125 272.1600341796875 267.0333251953125 265.809356689453125 263.793121337890625 263.03497314453125 277.75909423828125 288.47589111328125 295.027984619140625 296.956024169921875 301.229705810546875 306.1712646484375 314.14093017578125 316.8472900390625 321.569000244140625 326.126983642578125 -9999 -9999 -9999 -9999 -9999 -9999 -9999 -9999 -9999 -9999 -9999 -9999 -9999 -9999 -9999 -9999 -9999 -9999 -9999 -9999 -9999 -9999 -9999 -9999 -9999
-9999 -9999 -9999 -9999 -9999 -9999 -9999 -9999 -9999 -9999 -9999 -9999 -9999 -9999 -9999 -9999 -9999 -9999 -9999 -9999 -9999 -9999 -9999 -9999 -9999 -9999 -9999 -9999 -9999 -9999 -9999 -9999 -9999 -9999 -9999 -9999 315.668182373046875 317.8897705078125 319.751953125 320.83843994140625 317.2095947265625 310.490875244140625 304.9991455078125 303.732574462890625 299.86517333984375 296.3590087890625 290.902252197265625 288.514312744140625 288.00579833984375 288.00567626953125 288.385162353515625 287.15020751953125 288.2218017578125 286.023223876953125 279.151641845703125 279.021697998046875 279.207427978515625 281.05560302734375 280.004852294921875 273.921295166015625 270.920867919921875 277.745941162109375 280.588134765625 280.44189453125 283.761932373046875 279.395660400390625 270.879608154296875 262.25152587890625 260.833160400390625 262.14849853515625 262.223846435546875 264.125091552734375 265.25518798828125 267.95709228515625 269.74462890625 270.10382080078125 270.103912353515625 276.253326416015625 281.46905517578125 286.41131591796875 292.425872802734375 296.309600830078125 293.684814453125 292.661773681640625 292.56097412109375 289.98590087890625 285.615570068359375 277.563446044921875 270.553253173828125 265.27191162109375 264.84783935546875 263.549774169921875 268.703948974609375 280.0234375 289.043182373046875 297.10589599609375 300.332427978515625 302.1436767578125 304.72393798828125 307.2410888671875 313.453643798828125 316.155975341796875 320.570343017578125 324.38592529296875 -9999 -9999 -9999 -9999 -9999 -9999 -9999 -9999 -9999 -9999 -9999 -9999 -9999 -9999 -9999 -9999 -9999 -9999 -9999 -9999 -9999 -9999 -9999 -9999
-9999 -9999 -9999 -9999 -9999 -9999 -9999 -9999 -9999 -9999 -9999 -9999 -9999 -9999 -9999 -9999 -9999 -9999 -9999 -9999 -9999 -9999 -9999 -9999 -9999 -9999 -9999 -9999 -9999 -9999 -9999 -9999 -9999 -9999 -9999 308.551544189453125 311.335052490234375 315.9774169921875 318.547943115234375 319.681549072265625 318.32177734375 311.18328857421875 303.10662841796875 300.226593017578125 297.103607177734375 293.496734619140625 291.455535888671875 291.281829833984375 290.740631103515625 290.618804931640625 287.577362060546875 286.329986572265625 284.533905029296875 282.1148681640625 279.429290771484375 277.342559814453125 277.34246826171875 277.34234619140625 279.36126708984375 274.781768798828125 278.641265869140625 280.35772705078125 285.423248291015625 286.702423095703125 291.37835693359375 289.488067626953125 277.975189208984375 266.970977783203125 261.248291015625 259.736114501953125 260.95611572265625 260.40252685546875 263.52349853515625 265.689910888671875 266.98553466796875 270.569732666015625 277.5697021484375 283.781219482421875 289.9166259765625 293.02044677734375 298.50048828125 302.80767822265625 300.248016357421875 296.13922119140625 292.726318359375 289.763427734375 284.160491943359375 276.131439208984375 263.865386962890625 264.668365478515625 262.3839111328125 262.31243896484375 272.017730712890625 281.277252197265625 289.059844970703125 296.454925537109375 301.424713134765625 302.47723388671875 304.692657470703125 306.112213134765625 308.262847900390625 311.72186279296875 316.787506103515625 320.202606201171875 -9999 -9999 -9999 -9999 -9999 -9999 -9999 -9999 -9999 -9999 -9999 -9999 -9999 -9999 -9999 -9999 -9999 -9999 -9999 -9999 -9999 -9999 -9999 -9999
-9999 -9999 -9999 -9999 -9999 -9999 -9999 -9999 -9999 -9999 -9999 -9999 -9999 -9999 -9999 -9999 -9999 -9999 -9999 -9999 -9999 -9999 -9999 -9999 -9999 -9999 -9999 -9999 -9999 -9999 -9999 -9999 -9999 -9999 305.8310546875 306.622528076171875 309.9569091796875 311.4183349609375 313.159210205078125 314.970672607421875 314.05126953125 311.30975341796875 305.011871337890625 299.973602294921875 299.10333251953125 298.1424560546875 296.930450439453125 294.288421630859375 291.028350830078125 290.546295166015625 290.890380859375 289.998504638671875 285.658966064453125 285.370574951171875 280.202423095703125 277.392822265625 282.326934814453125 279.997802734375 276.796539306640625 277.123992919921875 279.158477783203125 279.918670654296875 281.92706298828125 285.0384521484375 285.415771484375 288.288238525390625 282.7535400390625 272.197906494140625 264.763336181640625 259.677947998046875 259.16845703125 259.287078857421875 261.771240234375 263.542083740234375 265.140838623046875 274.953643798828125 281.441619873046875 287.832550048828125 294.966156005859375 300.274169921875 302.649505615234375 306.76171875 307.186431884765625 296.328765869140625 290.53851318359375 288.62542724609375 277.516571044921875 272.760498046875 268.19342041015625 263.86529541015625 261.215179443359375 259.48681640625 272.521759033203125 283.26885986328125 289.377288818359375 295.143096923828125 300.293212890625 302.992706298828125 305.156951904296875 306.48895263671875 308.196868896484375 308.676422119140625 311.56439208984375 316.4854736328125 319.7996826171875 -9999 -9999 -9999 -9999 -9999 -9999 -9999 -9999 -9999 -9999 -9999 -9999 -9999 -9999 -9999 -9999 -9999 -9999 -9999 -9999 -9999 -9999 -9999
-9999 -9999 -9999 -9999 -9999 -9999 -9999 -9999 -9999 -9999 -9999 -9999 -9999 -9999 -9999 -9999 -9999 -9999 -9999 -9999 -9999 -9999 -9999 -9999 -9999 -9999 -9999 -9999 -9999 -9999 -9999 -9999 -9999 -9999 305.502197265625 305.226837158203125 304.984832763671875 307.0966796875 310.908233642578125 310.30828857421875 312.674102783203125 311.971527099609375 308.37542724609375 301.514892578125 300.878326416015625 300.889984130859375 295.81866455078125 292.833099365234375 288.93511962890625 286.994659423828125 287.076080322265625 281.61578369140625 280.481903076171875 280.4818115234375 278.179290771484375 280.172149658203125 285.192291259765625 285.6524658203125 280.85528564453125 278.16949462890625 279.4595947265625 280.009307861328125 280.2542724609375 280.70684814453125 282.7171630859375 284.3475341796875 283.6004638671875 276.932037353515625 266.293304443359375 260.8828125 258.89630126953125 258.89617919921875 259.302215576171875 260.91131591796875 266.143310546875 274.6751708984375 278.111114501953125 286.33111572265625 297.42913818359375 301.569488525390625 299.976715087890625 300.323516845703125 300.561004638671875 294.663116455078125 286.19769287109375 280.927886962890625 276.224639892578125 273.17974853515625 269.42626953125 262.337738037109375 260.6771240234375 259.080596923828125 274.48272705078125 283.43121337890625 288.949920654296875 293.3243408203125 296.570465087890625 302.6044921875 305.530120849609375 307.074005126953125 307.5272216796875 309.020843505859375 308.55804443359375 312.5443115234375 315.82781982421875 -9999 -9999 -9999 -9999 -9999 -9999 -9999 -9999 -9999 -9999 -9999 -9999 -9999 -9999 -9999 -9999 -9999 -9999 -9999 -9999 -9999 -9999 -9999
-9999 -9999 -9999 -9999 -9999 -9999 -9999 -9999 -9999 -9999 -9999 -9999 -9999 -9999 -9999 -9999 -9999 -9999 -9999 -9999 -9999 -9999 -9999 -9999 -9999 -9999 -9999 -9999 -9999 -9999 -9999 -9999 -9999 324.039215087890625 310.6124267578125 306.20330810546875 303.894287109375 304.66009521484375 305.669769287109375 308.823760986328125 313.866790771484375 310.265167236328125 306.60723876953125 305.014617919921875 299.379364013671875 298.501129150390625 295.763336181640625 295.7193603515625 293.419189453125 289.249664306640625 282.799530029296875 285.4854736328125 287.794097900390625 283.394775390625 279.73736572265625 280.442718505859375 281.350738525390625 281.646270751953125 280.843994140625 280.266387939453125 280.34356689453125 280.158233642578125 280.28802490234375 280.283233642578125 280.4188232421875 281.07452392578125 282.35693359375 279.5523681640625 271.214630126953125 263.887481689453125 261.27166748046875 259.048126220703125 258.896087646484375 261.45654296875 266.908905029296875 275.6824951171875 274.266693115234375 277.037200927734375 287.216156005859375 292.874755859375 294.05615234375 294.07781982421875 297.061614990234375 293.85986328125 284.92779541015625 280.454193115234375 277.0247802734375 270.022308349609375 269.5460205078125 264.868255615234375 263.00909423828125 256.425445556640625 268.665283203125 281.58367919921875 293.089111328125 297.529266357421875 299.484588623046875 301.9840087890625 306.00732421875 307.982696533203125 308.15509033203125 308.094818115234375 308.538543701171875 310.44879150390625 312.146148681640625 315.0050048828125 -9999 -9999 -9999 -9999 -9999 -9999 -9999 -9999 -9999 -9999 -9999 -9999 -9999 -9999 -9999 -9999 -9999 -9999 -9999 -9999 -9999 -9999
-9999 -9999 -9999 -9999 -9999 -9999 -9999 -9999 -9999 -9999 -9999 -9999 -9999 -9999 -9999 -9999 -9999 -9999 -9999 -9999 -9999 -9999 -9999 -9999 -9999 -9999 -9999 -9999 -9999 -9999 -9999 335.46661376953125 340.51824951171875 337.13958740234375 323.700897216796875 311.803466796875 303.42205810546875 301.2086181640625 304.767242431640625 306.86956787109375 306.643524169921875 308.863739013671875 307.661895751953125 303.05316162109375 300.424346923828125 296.560302734375 295.7694091796875 295.49591064453125 294.029815673828125 288.977081298828125 290.521240234375 299.762115478515625 304.36285400390625 300.503875732421875 291.06536865234375 281.19189453125 280.52435302734375 280.57122802734375 280.816070556640625 280.661407470703125 281.178436279296875 281.343475341796875 280.894012451171875 280.2418212890625 278.955535888671875 281.71441650390625 281.08685302734375 279.427032470703125 276.990509033203125 270.938720703125 263.7232666015625 262.277587890625 259.24676513671875 258.67706298828125 260.125030517578125 263.447235107421875 258.66326904296875 274.35137939453125 284.754791259765625 288.951446533203125 290.73260498046875 289.732879638671875 290.35369873046875 291.361083984375 284.1573486328125 277.599945068359375 272.9342041015625 267.737548828125 270.681976318359375 266.814117431640625 263.49664306640625 256.42535400390625 262.8988037109375 279.786468505859375 294.0894775390625 301.410888671875 301.7154541015625 302.80859375 305.06268310546875 307.649505615234375 310.641571044921875 309.97271728515625 309.20953369140625 309.64990234375 310.09808349609375 312.243804931640625 -9999 -9999 -9999 -9999 -9999 -9999 -9999 -9999 -9999 -9999 -9999 -9999 -9999 -9999 -9999 -9999 -9999 -9999 -9999 -9999 -9999 -9999
-9999 -9999 -9999 -9999 -9999 -9999 -9999 -9999 -9999 -9999 -9999 -9999 -9999 -9999 -9999 -9999 -9999 -9999 -9999 -9999 -9999 -9999 -9999 -9999 -9999 -9999 -9999 -9999 323.09454345703125 323.892181396484375 327.60113525390625 334.38055419921875 340.9012451171875 338.8253173828125 330.0032958984375 319.087158203125 309.4090576171875 299.980438232421875 298.283447265625 301.004638671875 303.686187744140625 304.397918701171875 306.123016357421875 303.474273681640625 300.04296875 297.96112060546875 296.532318115234375 295.25238037109375 294.253509521484375 291.87640380859375 294.576629638671875 301.496734619140625 304.311431884765625 307.101409912109375 303.297271728515625 294.35693359375 286.61798095703125 284.29779052734375 287.00518798828125 288.03009033203125 287.11767578125 286.115570068359375 283.3515625 280.928955078125 278.243804931640625 275.670928955078125 271.474212646484375 268.757904052734375 269.11187744140625 268.484619140625 265.409698486328125 262.44622802734375 261.85235595703125 260.67755126953125 258.66326904296875 258.663177490234375 260.6304931640625 265.7705078125 273.190093994140625 276.094818115234375 279.734222412109375 281.2415771484375 282.961639404296875 283.881927490234375 283.64959716796875 274.47637939453125 269.469207763671875 264.41754150390625 265.314361572265625 265.84130859375 258.825836181640625 253.6265411376953125 263.001556396484375 279.430084228515625 293.43115234375 300.51361083984375 304.047576904296875 307.60186767578125 313.0899658203125 312.5924072265625 312.1478271484375 312.61187744140625 312.21356201171875 311.538970947265625 311.655670166015625 311.937225341796875 312.33154296875 -9999 -9999 -9999 -9999 -9999 -9999 -9999 -9999 -9999 -9999 -9999 -9999 -9999 -9999 -9999 -9999 -9999 -9999 -9999 -9999 -9999
-9999 -9999 -9999 -9999 -9999 -9999 -9999 -9999 -9999 -9999 -9999 -9999 -9999 -9999 -9999 -9999 -9999 -9999 -9999 -9999 -9999 -9999 -9999 -9999 -9999 -9999 -9999 -9999 317.797698974609375 319.77593994140625 323.438751220703125 327.862518310546875 333.5535888671875 336.3109130859375 330.556396484375 321.320159912109375 313.96490478515625 304.273193359375 296.787567138671875 298.613922119140625 299.15997314453125 300.792633056640625 299.9085693359375 301.410308837890625 301.45489501953125 299.01629638671875 297.100860595703125 295.409576416015625 294.56317138671875 293.2581787109375 295.0762939453125 297.463134765625 299.906097412109375 313.459136962890625 318.638763427734375 315.146026611328125 306.1324462890625 289.44305419921875 286.976226806640625 288.71099853515625 288.222442626953125 286.52117919921875 283.178375244140625 283.902435302734375 275.84014892578125 271.474212646484375 270.44110107421875 267.54669189453125 264.79620361328125 263.360992431640625 263.2086181640625 265.098876953125 266.03997802734375 263.163238525390625 259.806915283203125 259.5848388671875 258.59466552734375 260.6910400390625 262.974884033203125 267.5465087890625 273.558319091796875 275.711578369140625 274.84796142578125 276.352813720703125 277.548431396484375 271.847564697265625 267.8758544921875 261.937408447265625 264.208404541015625 261.4925537109375 254.117523193359375 251.1219940185546875 266.4554443359375 279.6180419921875 293.534423828125 308.635589599609375 320.33819580078125 315.294403076171875 318.089111328125 319.267486572265625 317.33782958984375 316.483917236328125 315.6949462890625 315.20367431640625 313.553070068359375 312.844451904296875 -9999 -9999 -9999 -9999 -9999 -9999 -9999 -9999 -9999 -9999 -9999 -9999 -9999 -9999 -9999 -9999 -9999 -9999 -9999 -9999 -9999 -9999
-9999 -9999 -9999 -9999 -9999 -9999 -9999 -9999 -9999 -9999 -9999 -9999 -9999 -9999 -9999 -9999 -9999 -9999 -9999 -9999 -9999 -9999 -9999 -9999 -9999 -9999 -9999 -9999 319.43658447265625 314.858428955078125 316.8389892578125 320.166412353515625 324.019012451171875 328.88323974609375 327.648101806640625 321.103302001953125 314.4613037109375 307.358551025390625 298.49993896484375 295.56024169921875 297.84185791015625 297.22930908203125 299.52423095703125 303.005035400390625 301.747528076171875 298.0596923828125 296.33184814453125 296.18914794921875 294.614105224609375 293.27825927734375 294.400970458984375 295.00225830078125 296.905364990234375 303.40985107421875 311.880828857421875 314.548126220703125 311.607513427734375 297.957489013671875 286.0213623046875 283.65789794921875 282.466064453125 282.1578369140625 280.7657470703125 279.5750732421875 278.071014404296875 280.28875732421875 286.01495361328125 282.805633544921875 277.334014892578125 269.903411865234375 267.743682861328125 265.848480224609375 264.957183837890625 263.09173583984375 260.6583251953125 259.77020263671875 259.48052978515625 258.563507080078125 260.445037841796875 263.933624267578125 269.781982421875 274.95306396484375 275.248504638671875 274.495147705078125 271.166595458984375 267.1156005859375 264.308135986328125 256.790069580078125 253.285308837890625 252.1839141845703125 249.048095703125 254.7283172607421875 271.987640380859375 285.186431884765625 302.93719482421875 322.2667236328125 332.196868896484375 328.105255126953125 321.814971923828125 322.670989990234375 322.24969482421875 321.948272705078125 321.77337646484375 319.38922119140625 316.026947021484375 314.321441650390625 -9999 -9999 -9999 -9999 -9999 -9999 -9999 -9999 -9999 -9999 -9999 -9999 -9999 -9999 -9999 -9999 -9999 -9999 -9999 -9999 -9999 -9999
-9999 -9999 -9999 -9999 -9999 -9999 -9999 -9999 -9999 -9999 -9999 -9999 -9999 -9999 -9999 -9999 -9999 -9999 -9999 -9999 -9999 -9999 -9999 -9999 -9999 -9999 -9999 -9999 325.899871826171875 315.0682373046875 313.179443359375 313.687652587890625 316.0780029296875 319.698699951171875 323.642608642578125 320.919403076171875 313.95928955078125 308.632080078125 304.297454833984375 294.481781005859375 293.746917724609375 295.60821533203125 296.26165771484375 297.021942138671875 296.810394287109375 296.87139892578125 296.31072998046875 295.5419921875 294.619476318359375 293.9976806640625 290.86907958984375 295.49676513671875 295.947906494140625 296.07843017578125 305.234222412109375 310.0084228515625 306.755126953125 298.851318359375 291.271820068359375 283.52880859375 280.730682373046875 281.4849853515625 282.698089599609375 284.235504150390625 283.426513671875 290.09197998046875 299.5048828125 296.656280517578125 294.67669677734375 287.254852294921875 285.754730224609375 285.46405029296875 273.886932373046875 266.9410400390625 264.816436767578125 263.922607421875 260.79547119140625 258.563629150390625 258.56341552734375 259.700775146484375 266.3177490234375 272.179718017578125 274.21246337890625 274.940582275390625 270.529052734375 265.384765625 258.37823486328125 253.194488525390625 250.78173828125 247.4349365234375 247.4349365234375 260.814971923828125 275.550323486328125 288.906982421875 305.680267333984375 324.485626220703125 334.37005615234375 336.6314697265625 330.18585205078125 325.5400390625 326.438995361328125 326.53118896484375 325.2490234375 323.5120849609375 318.88677978515625 -9999 -9999 -9999 -9999 -9999 -9999 -9999 -9999 -9999 -9999 -9999 -9999 -9999 -9999 -9999 -9999 -9999 -9999 -9999 -9999 -9999 -9999 -9999
-9999 -9999 -9999 -9999 -9999 -9999 -9999 -9999 -9999 -9999 -9999 -9999 -9999 -9999 -9999 -9999 -9999 -9999 -9999 -9999 -9999 -9999 -9999 -9999 -9999 -9999 -9999 -9999 326.401214599609375 319.474151611328125 312.266021728515625 309.317596435546875 311.1817626953125 314.10882568359375 318.480865478515625 318.87506103515625 313.62384033203125 309.11151123046875 305.649932861328125 299.569610595703125 292.524383544921875 293.759918212890625 295.440582275390625 295.720733642578125 295.933380126953125 296.309051513671875 295.42669677734375 295.11181640625 294.612884521484375 293.1063232421875 290.86920166015625 291.84844970703125 292.810211181640625 293.90081787109375 297.725982666015625 306.5457763671875 305.751739501953125 300.66851806640625 293.002593994140625 285.767791748046875 282.33062744140625 284.837738037109375 289.000885009765625 297.362823486328125 297.044342041015625 301.12896728515625 308.94708251953125 308.935516357421875 303.1566162109375 301.80670166015625 306.428619384765625 302.851287841796875 297.85882568359375 286.82476806640625 273.815765380859375 269.052825927734375 264.881378173828125 261.313629150390625 261.67138671875 259.680267333984375 260.71197509765625 264.162445068359375 265.1044921875 267.981170654296875 269.44097900390625 264.0035400390625 254.621978759765625 248.1651611328125 242.8992156982421875 240.930267333984375 247.8396759033203125 264.063629150390625 276.8658447265625 289.73162841796875 304.015167236328125 320.538116455078125 334.349945068359375 340.22930908203125 337.8399658203125 330.59307861328125 328.9713134765625 328.73980712890625 327.83074951171875 325.980621337890625 -9999 -9999 -9999 -9999 -9999 -9999 -9999 -9999 -9999 -9999 -9999 -9999 -9999 -9999 -9999 -9999 -9999 -9999 -9999 -9999 -9999 -9999 -9999 -9999
-9999 -9999 -9999 -9999 -9999 -9999 -9999 -9999 -9999 -9999 -9999 -9999 -9999 -9999 -9999 -9999 -9999 -9999 -9999 -9999 -9999 -9999 -9999 -9999 -9999 -9999 -9999 -9999 321.68194580078125 319.50543212890625 313.173126220703125 308.519287109375 306.855438232421875 308.71630859375 309.000091552734375 311.748046875 311.8419189453125 306.445709228515625 304.4366455078125 300.776702880859375 295.610504150390625 292.02508544921875 293.163604736328125 293.39862060546875 294.820037841796875 296.503082275390625 296.16888427734375 295.54156494140625 294.804718017578125 293.8795166015625 292.599761962890625 290.869293212890625 290.9647216796875 290.964813232421875 292.980316162109375 294.608428955078125 298.7716064453125 305.176666259765625 295.124481201171875 285.087646484375 280.898834228515625 283.538818359375 296.78790283203125 315.076629638671875 315.49737548828125 307.379913330078125 310.003021240234375 309.319244384765625 304.507568359375 312.88140869140625 321.817169189453125 323.3756103515625 318.0576171875 306.8409423828125 287.6761474609375 272.630645751953125 268.915802001953125 265.69500732421875 266.635772705078125 264.00189208984375 258.21636962890625 256.361083984375 261.369476318359375 267.332855224609375 266.6519775390625 263.71307373046875 254.001800537109375 236.968414306640625 238.01806640625 240.2274017333984375 255.228424072265625 268.165313720703125 278.379180908203125 290.51275634765625 302.48199462890625 315.21875 329.60675048828125 338.777862548828125 341.21319580078125 336.723052978515625 335.478118896484375 332.989471435546875 334.13629150390625 332.156341552734375 -9999 -9999 -9999 -9999 -9999 -9999 -9999 -9999 -9999 -9999 -9999 -9999 -9999 -9999 -9999 -9999 -9999 -9999 -9999 -9999 -9999 -9999 -9999 -9999
-9999 -9999 -9999 -9999 -9999 -9999 -9999 -9999 -9999 -9999 -9999 -9999 -9999 -9999 -9999 -9999 -9999 -9999 -9999 -9999 -9999 -9999 -9999 -9999 -9999 -9999 -9999 -9999 -9999 317.213653564453125 312.12335205078125 306.347564697265625 303.99945068359375 299.1424560546875 296.884185791015625 298.268890380859375 302.472564697265625 302.9364013671875 299.217559814453125 295.775909423828125 300.518157958984375 292.857879638671875 292.024993896484375 291.485076904296875 292.0084228515625 292.818572998046875 296.6409912109375 300.874603271484375 304.950927734375 311.010406494140625 315.047760009765625 305.659759521484375 292.73663330078125 290.964935302734375 293.886810302734375 295.630859375 300.0592041015625 303.183563232421875 297.998443603515625 286.86676025390625 278.48773193359375 281.53399658203125 294.58026123046875 313.92425537109375 321.757476806640625 312.222991943359375 305.228607177734375 301.230316162109375 302.221893310546875 316.16253662109375 333.90985107421875 337.8416748046875 328.472747802734375 315.8121337890625 296.29583740234375 279.494354248046875 272.306396484375 270.76300048828125 271.272430419921875 269.574249267578125 261.734466552734375 256.360992431640625 261.110107421875 264.332794189453125 262.38616943359375 253.8585052490234375 244.5146942138671875 238.2190093994140625 236.968292236328125 236.968414306640625 264.423492431640625 275.19952392578125 283.584197998046875 292.34442138671875 301.446441650390625 309.672882080078125 320.34906005859375 332.49517822265625 338.65765380859375 339.779266357421875 338.575103759765625 338.577606201171875 340.54119873046875 -9999 -9999 -9999 -9999 -9999 -9999 -9999 -9999 -9999 -9999 -9999 -9999 -9999 -9999 -9999 -9999 -9999 -9999 -9999 -9999 -9999 -9999 -9999 -9999 -9999
-9999 -9999 -9999 -9999 -9999 -9999 -9999 -9999 -9999 -9999 -9999 -9999 -9999 -9999 -9999 -9999 -9999 -9999 -9999 -9999 -9999 -9999 -9999 -9999 -9999 -9999 -9999 -9999 -9999 -9999 313.09368896484375 303.237579345703125 298.82476806640625 295.881927490234375 294.50665283203125 293.184112548828125 292.02386474609375 292.42138671875 293.160980224609375 291.483154296875 292.05126953125 290.69891357421875 289.960784912109375 290.56256103515625 290.243255615234375 290.922698974609375 295.546478271484375 303.07373046875 307.33892822265625 314.795013427734375 324.211456298828125 322.119476318359375 307.2379150390625 292.2938232421875 292.1680908203125 295.61309814453125 298.631591796875 299.894775390625 295.186187744140625 286.6005859375 277.952239990234375 279.013214111328125 289.6275634765625 302.268829345703125 311.176483154296875 308.4979248046875 302.651885986328125 300.196136474609375 299.699432373046875 318.15606689453125 337.407073974609375 336.840301513671875 330.018035888671875 316.536529541015625 303.23162841796875 287.106597900390625 277.453338623046875 272.963897705078125 272.287811279296875 270.94140625 264.14886474609375 256.360870361328125 259.089630126953125 260.879119873046875 255.6690826416015625 246.1129608154296875 241.881591796875 236.9681854248046875 238.8536376953125 255.773101806640625 273.61260986328125 283.9073486328125 291.784149169921875 301.314453125 314.06243896484375 319.479248046875 322.716888427734375 328.709228515625 336.171905517578125 341.24029541015625 342.0089111328125 341.594024658203125 342.206878662109375 341.753753662109375 -9999 -9999 -9999 -9999 -9999 -9999 -9999 -9999 -9999 -9999 -9999 -9999 -9999 -9999 -9999 -9999 -9999 -9999 -9999 -9999 -9999 -9999 -9999 -9999
-9999 -9999 -9999 -9999 -9999 -9999 -9999 -9999 -9999 -9999 -9999 -9999 -9999 -9999 -9999 -9999 -9999 -9999 -9999 -9999 -9999 -9999 -9999 -9999 -9999 -9999 -9999 -9999 -9999 -9999 310.71728515625 303.2225341796875 300.390289306640625 301.284027099609375 305.66778564453125 302.1884765625 296.487548828125 291.85589599609375 290.47698974609375 290.430877685546875 290.102813720703125 290.944244384765625 289.281219482421875 288.634796142578125 289.148590087890625 288.830230712890625 292.00390625 299.054534912109375 302.323974609375 306.421875 308.9862060546875 315.887969970703125 308.2109375 297.035308837890625 289.64556884765625 292.9996337890625 293.779693603515625 295.47918701171875 291.648834228515625 284.75567626953125 278.79669189453125 276.849090576171875 283.5601806640625 289.09869384765625 303.254913330078125 305.4091796875 297.132965087890625 293.302154541015625 304.089813232421875 325.434234619140625 323.49737548828125 329.38311767578125 327.764129638671875 316.216278076171875 305.02117919921875 291.013275146484375 280.968963623046875 273.23150634765625 271.1514892578125 269.654571533203125 265.597442626953125 257.9759521484375 256.360748291015625 257.152923583984375 252.197967529296875 246.3789520263671875 238.2586669921875 236.9680633544921875 246.369415283203125 263.03143310546875 278.819915771484375 296.37811279296875 308.032928466796875 308.08636474609375 315.9019775390625 324.741363525390625 331.08294677734375 339.75689697265625 346.872589111328125 348.37847900390625 346.540863037109375 346.14532470703125 345.0902099609375 342.547515869140625 -9999 -9999 -9999 -9999 -9999 -9999 -9999 -9999 -9999 -9999 -9999 -9999 -9999 -9999 -9999 -9999 -9999 -9999 -9999 -9999 -9999 -9999 -9999 -9999
-9999 -9999 -9999 -9999 -9999 -9999 -9999 -9999 -9999 -9999 -9999 -9999 -9999 -9999 -9999 -9999 -9999 -9999 -9999 -9999 -9999 -9999 -9999 -9999 -9999 -9999 -9999 -9999 -9999 -9999 -9999 308.35345458984375 312.29278564453125 318.686553955078125 327.715240478515625 328.01800537109375 318.144500732421875 314.84698486328125 305.426025390625 296.706787109375 290.986236572265625 289.42681884765625 291.113433837890625 289.500396728515625 287.757843017578125 287.43328857421875 287.781768798828125 291.58734130859375 295.188720703125 298.011627197265625 301.92578125 310.8619384765625 309.24700927734375 299.79010009765625 291.660614013671875 287.446990966796875 289.951171875 290.57476806640625 291.232391357421875 285.014923095703125 280.284271240234375 276.8489990234375 278.874786376953125 283.38262939453125 292.056243896484375 300.41326904296875 289.35821533203125 287.493377685546875 311.71453857421875 327.471099853515625 326.649566650390625 321.734466552734375 321.937286376953125 315.3519287109375 301.815185546875 290.23590087890625 280.612274169921875 273.13653564453125 268.889251708984375 268.364593505859375 267.795318603515625 260.609649658203125 253.18603515625 253.18389892578125 248.442779541015625 242.392608642578125 236.96795654296875 238.8610687255859375 254.3019561767578125 266.54461669921875 285.25860595703125 302.131744384765625 306.84832763671875 309.279510498046875 316.612884521484375 328.070587158203125 334.68341064453125 344.242095947265625 349.79052734375 351.734222412109375 -9999 -9999 -9999 -9999 -9999 -9999 -9999 -9999 -9999 -9999 -9999 -9999 -9999 -9999 -9999 -9999 -9999 -9999 -9999 -9999 -9999 -9999 -9999 -9999 -9999 -9999 -9999 -9999
-9999 -9999 -9999 -9999 -9999 -9999 -9999 -9999 -9999 -9999 -9999 -9999 -9999 -9999 -9999 -9999 -9999 -9999 -9999 -9999 -9999 -9999 -9999 -9999 -9999 -9999 -9999 -9999 -9999 -9999 -9999 316.54547119140625 324.33209228515625 323.589111328125 327.2374267578125 334.660247802734375 330.817901611328125 327.01116943359375 325.070526123046875 320.115325927734375 306.755279541015625 293.795013427734375 289.978546142578125 288.81396484375 287.4749755859375 287.132476806640625 287.29974365234375 288.8870849609375 293.797637939453125 299.48046875 301.655059814453125 306.186798095703125 307.13458251953125 304.02740478515625 297.875030517578125 288.9195556640625 284.29095458984375 285.718963623046875 288.007781982421875 290.001953125 284.481781005859375 277.586883544921875 273.032989501953125 277.556121826171875 285.013336181640625 289.976104736328125 289.9407958984375 284.58795166015625 310.5118408203125 322.9422607421875 320.94000244140625 315.578948974609375 315.54534912109375 312.31146240234375 301.2281494140625 290.628936767578125 279.57086181640625 272.68206787109375 270.258636474609375 269.22265625 268.51910400390625 262.82958984375 250.7223358154296875 250.573333740234375 246.46875 237.00836181640625 236.96783447265625 243.3106689453125 252.05010986328125 263.136810302734375 285.83489990234375 295.9342041015625 302.400726318359375 308.05804443359375 315.48199462890625 325.2982177734375 333.89288330078125 341.439788818359375 347.707122802734375 351.167510986328125 -9999 -9999 -9999 -9999 -9999 -9999 -9999 -9999 -9999 -9999 -9999 -9999 -9999 -9999 -9999 -9999 -9999 -9999 -9999 -9999 -9999 -9999 -9999 -9999 -9999 -9999 -9999 -9999
-9999 -9999 -9999 -9999 -9999 -9999 -9999 -9999 -9999 -9999 -9999 -9999 -9999 -9999 -9999 -9999 -9999 -9999 -9999 -9999 -9999 -9999 -9999 -9999 -9999 -9999 -9999 -9999 -9999 -9999 -9999 -9999 -9999 324.12982177734375 323.973480224609375 327.682403564453125 330.74847412109375 328.214599609375 325.252593994140625 323.760284423828125 314.819915771484375 307.674713134765625 302.6368408203125 295.580535888671875 289.687347412109375 288.6783447265625 286.747802734375 288.602508544921875 293.601593017578125 297.912078857421875 297.897247314453125 299.696533203125 302.713287353515625 302.755126953125 298.5987548828125 292.388763427734375 283.64996337890625 282.99359130859375 283.566497802734375 288.169189453125 287.74853515625 279.32354736328125 272.205902099609375 273.174346923828125 276.847564697265625 279.698455810546875 285.125579833984375 278.730438232421875 305.83551025390625 321.733551025390625 320.293426513671875 313.403411865234375 310.098907470703125 308.550262451171875 301.416015625 292.452392578125 281.732086181640625 273.901275634765625 270.2696533203125 267.4161376953125 265.221923828125 259.125946044921875 249.3984832763671875 247.16143798828125 248.0316162109375 240.1557769775390625 236.9677276611328125 241.47576904296875 246.9427642822265625 259.182098388671875 278.397796630859375 287.6805419921875 298.249267578125 304.44451904296875 312.944427490234375 324.575775146484375 332.927032470703125 339.462371826171875 343.83270263671875 346.40142822265625 347.468963623046875 -9999 -9999 -9999 -9999 -9999 -9999 -9999 -9999 -9999 -9999 -9999 -9999 -9999 -9999 -9999 -9999 -9999 -9999 -9999 -9999 -9999 -9999 -9999 -9999 -9999 -9999 -9999
-9999 -9999 -9999 -9999 -9999 -9999 -9999 -9999 -9999 -9999 297.469390869140625 300.670074462890625 -9999 -9999 -9999 -9999 -9999 -9999 -9999 -9999 -9999 -9999 -9999 -9999 -9999 -9999 -9999 -9999 -9999 -9999 -9999 -9999 -9999 -9999 322.85565185546875 324.33477783203125 327.43975830078125 325.80621337890625 323.02264404296875 321.93475341796875 317.9705810546875 317.1407470703125 315.736358642578125 310.141815185546875 301.801239013671875 297.595794677734375 291.683319091796875 286.6500244140625 285.827545166015625 288.368927001953125 289.7081298828125 292.247283935546875 295.934967041015625 297.52984619140625 294.9183349609375 289.30023193359375 283.43206787109375 280.5989990234375 279.49884033203125 281.48419189453125 284.338897705078125 285.17291259765625 276.94805908203125 268.72430419921875 270.207366943359375 271.815399169921875 276.61505126953125 273.953155517578125 290.988555908203125 306.635894775390625 315.201812744140625 311.97418212890625 306.244903564453125 304.9129638671875 300.58465576171875 291.545562744140625 284.13287353515625 275.628021240234375 270.448089599609375 263.576171875 261.275177001953125 254.1626739501953125 249.74005126953125 244.38482666015625 243.10748291015625 239.7185211181640625 236.9676055908203125 240.2700347900390625 242.563079833984375 255.086517333984375 264.42724609375 277.865692138671875 289.322540283203125 299.511962890625 310.994659423828125 322.899444580078125 331.64556884765625 338.4844970703125 342.04266357421875 343.476318359375 343.96868896484375 -9999 -9999 -9999 -9999 -9999 -9999 -9999 -9999 -9999 -9999 -9999 -9999 -9999 -9999 -9999 -9999 -9999 -9999 -9999 -9999 -9999 -9999 -9999 -9999 -9999 -9999 -9999
-9999 -9999 -9999 -9999 -9999 -9999 -9999 -9999 -9999 292.436798095703125 295.744720458984375 299.32080078125 -9999 -9999 -9999 -9999 -9999 -9999 -9999 -9999 -9999 -9999 -9999 -9999 -9999 -9999 -9999 -9999 -9999 -9999 -9999 -9999 -9999 -9999 318.86376953125 322.462738037109375 324.73345947265625 323.673370361328125 321.4373779296875 319.163330078125 316.8336181640625 312.6468505859375 314.979034423828125 312.7574462890625 309.18218994140625 305.125030517578125 302.809326171875 296.12335205078125 286.86053466796875 284.93719482421875 284.72039794921875 284.91845703125 288.404693603515625 292.623321533203125 292.519927978515625 289.400726318359375 284.90399169921875 281.509674072265625 277.842071533203125 277.87615966796875 280.31524658203125 280.104736328125 277.76690673828125 272.282012939453125 265.84027099609375 268.296356201171875 272.466278076171875 270.751617431640625 274.75628662109375 289.620361328125 305.15252685546875 307.95050048828125 301.765960693359375 297.485137939453125 297.24481201171875 291.471221923828125 283.84332275390625 277.31097412109375 271.379364013671875 264.931732177734375 255.632720947265625 252.4350128173828125 253.2859344482421875 247.684051513671875 239.7186431884765625 242.3952789306640625 238.694244384765625 236.967498779296875 241.45855712890625 250.7821197509765625 258.20941162109375 271.94000244140625 283.443145751953125 297.043243408203125 310.175567626953125 318.17449951171875 327.5799560546875 336.292236328125 342.067657470703125 343.547943115234375 343.72540283203125 -9999 -9999 -9999 -9999 -9999 -9999 -9999 -9999 -9999 -9999 -9999 -9999 -9999 -9999 -9999 -9999 -9999 -9999 -9999 -9999 -9999 -9999 -9999 -9999 -9999 -9999 -9999
-9999 -9999 -9999 -9999 -9999 -9999 287.325775146484375 -9999 284.914398193359375 288.736968994140625 293.314117431640625 295.462005615234375 298.934906005859375 -9999 -9999 -9999 -9999 -9999 -9999 -9999 -9999 -9999 -9999 -9999 -9999 -9999 -9999 -9999 -9999 -9999 -9999 -9999 -9999 316.192169189453125 315.130889892578125 317.48773193359375 320.645538330078125 320.78955078125 320.044403076171875 316.7271728515625 314.35772705078125 306.204681396484375 309.6885986328125 310.97650146484375 309.433685302734375 309.204345703125 307.50079345703125 302.109344482421875 293.13531494140625 286.548126220703125 283.926300048828125 283.3671875 284.2498779296875 286.93475341796875 288.119842529296875 287.63092041015625 283.861297607421875 280.33892822265625 276.838226318359375 275.9791259765625 276.295257568359375 277.5477294921875 276.43658447265625 272.571746826171875 266.257568359375 262.435943603515625 265.860076904296875 269.211517333984375 268.15020751953125 277.41485595703125 292.219482421875 299.04827880859375 295.445892333984375 291.376373291015625 292.7802734375 289.15277099609375 284.185272216796875 279.40875244140625 272.70318603515625 268.090087890625 260.56878662109375 253.9835205078125 252.0897216796875 250.893798828125 242.5546417236328125 242.895904541015625 240.6463775634765625 235.006500244140625 237.588531494140625 244.0587921142578125 250.5656585693359375 250.5656585693359375 278.143768310546875 293.361907958984375 305.03057861328125 314.202789306640625 326.187896728515625 338.4617919921875 345.47845458984375 350.61566162109375 346.15863037109375 -9999 -9999 -9999 -9999 -9999 -9999 -9999 -9999 -9999 -9999 -9999 -9999 -9999 -9999 -9999 -9999 -9999 -9999 -9999 -9999 -9999 -9999 -9999 -9999 -9999 -9999 -9999
-9999 -9999 -9999 -9999 -9999 -9999 288.562835693359375 284.488555908203125 283.4295654296875 283.179840087890625 286.868621826171875 288.868408203125 291.093536376953125 293.846099853515625 -9999 -9999 -9999 -9999 -9999 -9999 -9999 -9999 -9999 -9999 -9999 -9999 -9999 -9999 -9999 -9999 -9999 -9999 319.484832763671875 316.673583984375 314.233673095703125 313.403472900390625 314.701812744140625 316.375457763671875 316.863616943359375 313.456787109375 311.37060546875 308.757720947265625 306.20458984375 306.821075439453125 306.42010498046875 305.3211669921875 305.374603271484375 303.91387939453125 298.618011474609375 291.2806396484375 286.034759521484375 284.864715576171875 282.679229736328125 281.549774169921875 285.204681396484375 286.465301513671875 284.78106689453125 279.383544921875 278.1922607421875 274.2001953125 276.143707275390625 277.13372802734375 274.9019775390625 273.51220703125 268.75946044921875 261.475311279296875 259.9710693359375 265.347137451171875 262.70599365234375 266.76336669921875 274.91400146484375 282.560791015625 287.80206298828125 285.79217529296875 287.8387451171875 285.86669921875 280.32073974609375 276.998504638671875 273.22271728515625 266.910675048828125 259.942108154296875 252.48980712890625 249.1200408935546875 249.0059814453125 244.1438751220703125 240.90625 238.134552001953125 233.880218505859375 232.2225189208984375 238.07733154296875 247.3071746826171875 255.4134979248046875 267.816162109375 284.274810791015625 295.67584228515625 310.796875 324.399200439453125 336.309234619140625 348.580108642578125 359.12841796875 358.8707275390625 -9999 -9999 -9999 -9999 -9999 -9999 -9999 -9999 -9999 -9999 -9999 -9999 -9999 -9999 -9999 -9999 -9999 -9999 -9999 -9999 -9999 -9999 -9999 -9999 -9999 -9999 -9999
-9999 -9999 -9999 -9999 -9999 -9999 -9999 285.556732177734375 283.07763671875 281.2474365234375 279.02099609375 281.305908203125 282.734893798828125 285.53607177734375 287.7823486328125 -9999 -9999 -9999 -9999 -9999 -9999 -9999 -9999 -9999 -9999 -9999 -9999 -9999 -9999 -9999 -9999 -9999 324.486419677734375 321.003509521484375 316.05450439453125 313.065673828125 312.14776611328125 313.27899169921875 314.3446044921875 312.421173095703125 309.23541259765625 307.138916015625 304.528839111328125 304.532806396484375 303.54437255859375 302.336212158203125 302.261505126953125 302.244354248046875 300.59979248046875 295.032684326171875 290.386627197265625 286.842254638671875 283.93450927734375 282.257354736328125 280.900634765625 281.943817138671875 281.898284912109375 278.4617919921875 275.2884521484375 269.63604736328125 272.278076171875 274.0145263671875 273.48492431640625 272.689056396484375 268.98199462890625 263.366119384765625 258.630279541015625 257.43505859375 258.3758544921875 257.737091064453125 262.825531005859375 269.662261962890625 271.764739990234375 278.1474609375 280.344818115234375 280.941162109375 271.96453857421875 265.5609130859375 265.50555419921875 260.676025390625 254.1373748779296875 249.6869659423828125 247.5363922119140625 246.390960693359375 246.512176513671875 243.579315185546875 242.9901275634765625 233.94610595703125 230.2764892578125 235.925506591796875 242.3116912841796875 247.0434112548828125 254.574737548828125 269.976776123046875 286.778106689453125 304.589447021484375 318.9862060546875 331.29913330078125 348.254913330078125 358.02850341796875 368.228302001953125 -9999 -9999 -9999 -9999 -9999 -9999 -9999 -9999 -9999 -9999 -9999 -9999 -9999 -9999 -9999 -9999 -9999 -9999 -9999 -9999 -9999 -9999 -9999 -9999 -9999 -9999 -9999
-9999 -9999 -9999 -9999 -9999 -9999 -9999 282.598663330078125 283.1092529296875 279.657684326171875 277.24810791015625 277.547119140625 280.509307861328125 281.65972900390625 287.622283935546875 -9999 -9999 -9999 -9999 -9999 -9999 -9999 -9999 -9999 -9999 -9999 -9999 -9999 -9999 -9999 -9999 -9999 326.4295654296875 324.750640869140625 319.617706298828125 313.5882568359375 310.426544189453125 310.169342041015625 310.580718994140625 310.866607666015625 307.64794921875 306.355926513671875 304.85064697265625 301.14324951171875 300.30670166015625 300.2550048828125 299.417694091796875 299.24957275390625 298.766571044921875 295.671417236328125 291.22406005859375 288.15643310546875 285.6015625 286.34564208984375 283.072509765625 277.166351318359375 278.077301025390625 276.940277099609375 273.808563232421875 269.635955810546875 271.149444580078125 272.384246826171875 272.783172607421875 270.984466552734375 269.639556884765625 263.84893798828125 259.244049072265625 256.37432861328125 258.949676513671875 255.51373291015625 253.3005828857421875 260.449310302734375 262.059112548828125 265.28375244140625 270.44659423828125 266.868316650390625 259.37286376953125 240.1989288330078125 250.0543212890625 249.4416351318359375 248.3966217041015625 247.4169158935546875 245.67529296875 245.82708740234375 242.6424560546875 243.5380401611328125 252.9060516357421875 248.4853057861328125 231.59783935546875 230.2512969970703125 237.602691650390625 237.602691650390625 247.926513671875 263.943572998046875 277.611175537109375 292.841644287109375 306.9388427734375 322.18267822265625 343.730224609375 352.6337890625 363.42333984375 367.839019775390625 367.55426025390625 364.380523681640625 -9999 -9999 -9999 -9999 -9999 -9999 -9999 -9999 -9999 -9999 -9999 -9999 -9999 -9999 -9999 -9999 -9999 -9999 -9999 -9999 -9999 -9999 -9999 -9999
-9999 -9999 -9999 -9999 -9999 -9999 -9999 276.812774658203125 278.806793212890625 277.200714111328125 275.918304443359375 275.2242431640625 278.9744873046875 281.60284423828125 288.206085205078125 289.542572021484375 289.9761962890625 287.3150634765625 -9999 -9999 -9999 -9999 -9999 -9999 -9999 -9999 -9999 -9999 -9999 329.620941162109375 327.879180908203125 326.1649169921875 325.134735107421875 323.743255615234375 321.082183837890625 314.821258544921875 309.6463623046875 305.83038330078125 306.2330322265625 307.037353515625 306.8214111328125 302.743927001953125 302.0318603515625 300.5782470703125 297.52764892578125 297.124481201171875 296.02386474609375 297.143829345703125 298.434234619140625 298.290740966796875 294.954803466796875 291.10577392578125 285.978302001953125 283.579986572265625 283.68475341796875 277.6524658203125 275.185455322265625 275.16278076171875 272.6912841796875 268.34332275390625 267.67926025390625 270.743865966796875 271.0009765625 271.780242919921875 271.196136474609375 266.31866455078125 260.0994873046875 254.5351409912109375 252.2712554931640625 255.4630584716796875 253.054962158203125 251.66497802734375 252.2504730224609375 252.03521728515625 254.182708740234375 250.1380462646484375 243.7332611083984375 240.66351318359375 240.1988067626953125 240.198699951171875 240.198577880859375 240.1984710693359375 236.700927734375 244.2577667236328125 243.316558837890625 240.083953857421875 245.7513427734375 252.325103759765625 241.4962921142578125 229.367950439453125 235.6662139892578125 241.1868438720703125 245.413543701171875 257.088714599609375 267.971832275390625 280.743438720703125 293.4248046875 313.4736328125 336.53826904296875 348.57891845703125 354.3447265625 360.90399169921875 363.42474365234375 361.422576904296875 357.421722412109375 -9999 -9999 -9999 -9999 -9999 -9999 -9999 -9999 -9999 -9999 -9999 -9999 -9999 -9999 -9999 -9999 -9999 -9999 -9999 -9999 -9999 -9999 -9999
-9999 -9999 -9999 -9999 -9999 -9999 -9999 275.346893310546875 276.414764404296875 274.89886474609375 273.3507080078125 272.91522216796875 272.81121826171875 275.5877685546875 279.884490966796875 282.23284912109375 281.964019775390625 280.19183349609375 283.634613037109375 -9999 -9999 -9999 301.73822021484375 -9999 -9999 -9999 -9999 -9999 -9999 326.238555908203125 325.571044921875 323.743896484375 322.530517578125 321.369598388671875 319.81988525390625 315.41827392578125 309.09393310546875 303.666778564453125 301.1522216796875 302.903656005859375 303.739471435546875 302.41815185546875 300.842529296875 296.8126220703125 295.785430908203125 296.66815185546875 294.853179931640625 294.02197265625 295.129791259765625 295.23272705078125 293.69683837890625 290.996307373046875 286.47174072265625 281.31005859375 278.962554931640625 278.514923095703125 272.500946044921875 273.557891845703125 272.5906982421875 270.717529296875 266.6654052734375 267.629180908203125 270.357330322265625 273.777008056640625 273.224334716796875 268.912353515625 265.001007080078125 260.7071533203125 246.451202392578125 249.36578369140625 249.295989990234375 247.5083465576171875 245.0402069091796875 241.138580322265625 242.7272186279296875 241.1383514404296875 240.66363525390625 240.67462158203125 245.5711212158203125 249.3377685546875 251.4963531494140625 249.3602142333984375 240.598114013671875 236.7008056640625 237.703887939453125 233.153533935546875 239.095428466796875 250.907928466796875 242.5910491943359375 226.3127899169921875 228.7353057861328125 235.0649261474609375 238.7693939208984375 247.034210205078125 257.881072998046875 271.46923828125 282.8072509765625 301.838531494140625 328.98388671875 340.50823974609375 349.98944091796875 354.801971435546875 357.841583251953125 357.610504150390625 353.186614990234375 347.14251708984375 341.52392578125 -9999 -9999 -9999 -9999 -9999 -9999 -9999 -9999 -9999 -9999 -9999 -9999 -9999 -9999 -9999 -9999 -9999 -9999 -9999 -9999 -9999
-9999 -9999 -9999 -9999 -9999 -9999 -9999 274.247314453125 272.21038818359375 272.201568603515625 271.47747802734375 270.916534423828125 270.769195556640625 272.547027587890625 273.54931640625 275.56097412109375 278.325225830078125 277.5428466796875 279.978759765625 280.79498291015625 284.8101806640625 294.3463134765625 300.415771484375 307.689483642578125 313.817535400390625 -9999 -9999 -9999 -9999 324.7493896484375 324.57861328125 323.44171142578125 320.853912353515625 319.335601806640625 317.309173583984375 314.59368896484375 308.753265380859375 303.9102783203125 298.844757080078125 298.96466064453125 300.49462890625 299.113555908203125 297.19866943359375 295.173309326171875 293.513946533203125 293.403656005859375 292.065887451171875 291.830291748046875 292.759674072265625 292.949981689453125 291.623870849609375 289.406829833984375 286.6536865234375 282.580078125 277.391387939453125 275.72235107421875 272.431121826171875 270.98876953125 271.60516357421875 270.260772705078125 267.3416748046875 264.91546630859375 268.6392822265625 270.9794921875 269.249176025390625 265.62103271484375 263.22161865234375 260.018402099609375 255.0508880615234375 246.451080322265625 244.7476959228515625 243.1485748291015625 241.9889373779296875 241.3814849853515625 241.138458251953125 242.329254150390625 244.2899932861328125 250.8455963134765625 256.398681640625 261.75091552734375 264.64080810546875 266.34869384765625 255.590087890625 242.6808013916015625 235.5621490478515625 233.153411865234375 236.8865966796875 245.3428802490234375 237.8043212890625 230.8322296142578125 225.3962249755859375 231.98797607421875 227.92724609375 239.5553436279296875 251.8390960693359375 264.428192138671875 277.112518310546875 290.876922607421875 315.288299560546875 333.916778564453125 345.063079833984375 349.506866455078125 350.031341552734375 348.259979248046875 347.1517333984375 341.80340576171875 338.135040283203125 329.19683837890625 320.765228271484375 -9999 -9999 -9999 -9999 -9999 -9999 -9999 -9999 -9999 -9999 -9999 -9999 -9999 -9999 -9999 -9999 -9999 -9999 -9999
-9999 -9999 -9999 -9999 -9999 -9999 277.41217041015625 274.774261474609375 272.20166015625 272.264373779296875 273.455352783203125 272.61962890625 270.386322021484375 269.781768798828125 269.830108642578125 274.28424072265625 273.1641845703125 275.780548095703125 275.183746337890625 279.035125732421875 283.74066162109375 292.06903076171875 300.297088623046875 305.193634033203125 309.893707275390625 318.595062255859375 -9999 -9999 324.853485107421875 323.583709716796875 320.4522705078125 319.949310302734375 318.39471435546875 315.380706787109375 314.4615478515625 312.14739990234375 307.977294921875 302.422515869140625 299.137969970703125 295.39703369140625 296.210113525390625 296.600982666015625 295.0738525390625 294.9669189453125 292.87249755859375 291.27838134765625 292.031158447265625 290.958404541015625 290.792388916015625 291.90484619140625 289.600250244140625 287.799468994140625 285.6212158203125 282.44580078125 278.66070556640625 276.375885009765625 272.571380615234375 268.7615966796875 269.2178955078125 269.707794189453125 266.692626953125 263.50177001953125 267.515289306640625 266.009979248046875 263.7786865234375 260.20635986328125 258.053314208984375 254.4007568359375 252.5464630126953125 249.135528564453125 245.68878173828125 244.76043701171875 245.734649658203125 245.17547607421875 245.94757080078125 249.1895294189453125 255.7015380859375 261.1602783203125 266.56939697265625 271.771453857421875 272.913482666015625 276.9801025390625 272.396820068359375 259.65863037109375 250.0601959228515625 240.5935821533203125 233.1533050537109375 237.7370147705078125 237.376708984375 234.0440826416015625 223.23974609375 227.8974151611328125 227.92724609375 236.1601715087890625 245.178009033203125 256.62701416015625 269.405364990234375 283.27886962890625 302.91864013671875 323.62445068359375 335.335662841796875 338.03057861328125 340.82208251953125 341.589630126953125 339.5274658203125 336.5340576171875 331.2679443359375 325.184814453125 318.237548828125 312.957550048828125 -9999 -9999 -9999 -9999 -9999 -9999 -9999 -9999 -9999 -9999 -9999 -9999 -9999 -9999 -9999 -9999 -9999 -9999
-9999 -9999 -9999 -9999 -9999 293.6063232421875 282.617919921875 276.265289306640625 274.570831298828125 273.693145751953125 275.665435791015625 279.879302978515625 274.94989013671875 271.378173828125 269.220703125 269.921966552734375 268.72344970703125 269.58428955078125 273.503204345703125 277.83831787109375 281.1002197265625 288.755828857421875 296.485748291015625 303.671051025390625 310.040435791015625 314.6483154296875 325.703521728515625 -9999 325.01910400390625 323.55523681640625 319.708404541015625 316.77349853515625 314.109039306640625 309.5655517578125 311.79608154296875 309.4488525390625 306.524627685546875 301.40155029296875 296.9508056640625 293.272491455078125 294.43463134765625 294.9442138671875 293.694915771484375 292.369873046875 291.782867431640625 290.514373779296875 291.61907958984375 291.669464111328125 290.34661865234375 290.190216064453125 289.69586181640625 287.188720703125 283.96490478515625 280.274017333984375 279.6822509765625 276.222198486328125 272.518707275390625 268.592132568359375 268.598175048828125 268.78485107421875 266.80126953125 262.513671875 263.094635009765625 263.57501220703125 260.04730224609375 256.57037353515625 255.35723876953125 255.737640380859375 261.775604248046875 263.6298828125 259.577850341796875 257.04571533203125 257.091400146484375 256.3167724609375 258.34820556640625 260.371307373046875 265.68731689453125 272.227264404296875 277.099273681640625 275.53790283203125 274.79278564453125 276.4603271484375 278.022979736328125 270.864013671875 262.141082763671875 252.547119140625 240.1723785400390625 233.1531829833984375 235.2239227294921875 233.1491546630859375 230.1213836669921875 222.4275970458984375 225.6661529541015625 220.94549560546875 236.0377655029296875 249.4160614013671875 263.557373046875 277.768585205078125 293.62554931640625 310.381561279296875 323.18218994140625 327.314239501953125 334.042877197265625 332.787139892578125 329.9796142578125 326.68646240234375 320.965576171875 318.099822998046875 314.37530517578125 309.681427001953125 305.82977294921875 -9999 -9999 -9999 -9999 -9999 -9999 -9999 -9999 -9999 -9999 -9999 -9999 -9999 -9999 -9999 -9999 -9999
-9999 -9999 -9999 -9999 -9999 296.9654541015625 289.731109619140625 282.965545654296875 281.531036376953125 284.595245361328125 285.119232177734375 286.091064453125 284.542510986328125 278.659332275390625 273.214508056640625 269.220611572265625 267.635101318359375 268.309326171875 274.125457763671875 279.18377685546875 285.26678466796875 295.362152099609375 302.135833740234375 307.401580810546875 312.650665283203125 318.046630859375 320.874725341796875 328.705108642578125 328.50189208984375 325.287017822265625 320.0557861328125 316.68768310546875 313.33544921875 309.5655517578125 307.297271728515625 306.26983642578125 303.8841552734375 299.907135009765625 294.203399658203125 290.9813232421875 289.9842529296875 291.62615966796875 294.5780029296875 290.71575927734375 289.845916748046875 289.90985107421875 291.50042724609375 291.296478271484375 291.258758544921875 291.61444091796875 292.27008056640625 290.80682373046875 285.89501953125 281.30865478515625 278.28912353515625 275.590240478515625 273.761566162109375 271.070068359375 266.609771728515625 268.47161865234375 268.153961181640625 262.992919921875 260.715728759765625 261.63397216796875 258.765350341796875 256.58001708984375 259.59417724609375 264.152862548828125 271.304931640625 273.6893310546875 272.59222412109375 268.93994140625 266.745941162109375 266.6229248046875 266.886199951171875 274.651275634765625 273.49139404296875 277.594024658203125 286.617645263671875 287.23223876953125 278.170623779296875 273.546356201171875 272.631195068359375 271.74560546875 270.944671630859375 263.8895263671875 246.7811126708984375 237.9311981201171875 233.153076171875 224.78619384765625 224.78607177734375 219.05169677734375 220.94537353515625 228.707794189453125 230.405609130859375 242.529754638671875 258.22039794921875 271.339080810546875 282.259918212890625 294.896209716796875 309.0947265625 316.57196044921875 320.63629150390625 320.389892578125 319.090179443359375 312.83905029296875 314.4859619140625 312.82061767578125 311.478668212890625 307.153289794921875 303.955108642578125 299.96881103515625 -9999 -9999 -9999 -9999 -9999 -9999 -9999 -9999 -9999 -9999 -9999 -9999 -9999 -9999 -9999 -9999
-9999 -9999 -9999 -9999 -9999 -9999 296.093475341796875 292.893280029296875 297.785491943359375 300.6900634765625 300.126953125 297.6156005859375 294.909881591796875 292.219757080078125 285.671600341796875 278.532470703125 267.635009765625 270.5218505859375 275.006011962890625 277.686981201171875 283.783172607421875 294.36376953125 303.286773681640625 307.11639404296875 310.53790283203125 314.127838134765625 319.037017822265625 324.599273681640625 330.305419921875 327.4039306640625 321.946197509765625 317.099609375 311.634765625 305.776397705078125 302.406341552734375 301.3428955078125 300.234100341796875 297.338836669921875 293.9136962890625 291.10888671875 288.53033447265625 287.510223388671875 289.408172607421875 288.7008056640625 288.489898681640625 288.7037353515625 291.3280029296875 290.14862060546875 290.226470947265625 291.303985595703125 291.94390869140625 293.368408203125 288.84478759765625 284.25628662109375 281.227569580078125 277.64703369140625 273.47100830078125 272.16241455078125 265.8760986328125 266.3388671875 266.79840087890625 265.974090576171875 260.400299072265625 260.23614501953125 257.61663818359375 259.067138671875 265.114166259765625 272.48193359375 280.276214599609375 283.724578857421875 283.047515869140625 279.501434326171875 275.824676513671875 274.136138916015625 274.212677001953125 279.823333740234375 284.949249267578125 282.092559814453125 277.5941162109375 300.581207275390625 307.7197265625 293.0972900390625 272.74737548828125 269.37347412109375 266.010589599609375 262.213897705078125 250.796051025390625 242.28753662109375 240.1031646728515625 233.3282623291015625 229.12567138671875 221.429351806640625 217.3649444580078125 225.5319671630859375 226.126617431640625 238.6707305908203125 257.507049560546875 265.48223876953125 271.444854736328125 282.27978515625 293.07208251953125 305.365478515625 310.330352783203125 313.072540283203125 307.35748291015625 300.466827392578125 306.835479736328125 306.80859375 306.6788330078125 302.8350830078125 298.68243408203125 295.880462646484375 295.5714111328125 -9999 -9999 -9999 -9999 -9999 -9999 -9999 -9999 -9999 -9999 -9999 -9999 -9999 -9999 -9999
-9999 -9999 -9999 -9999 -9999 -9999 -9999 302.277862548828125 308.350341796875 310.530120849609375 309.3292236328125 308.46258544921875 308.733184814453125 307.104644775390625 300.49420166015625 293.099822998046875 281.904632568359375 266.849578857421875 264.90533447265625 267.486846923828125 273.796173095703125 284.726806640625 294.338836669921875 304.36279296875 312.32269287109375 313.024200439453125 316.248199462890625 318.83673095703125 326.76416015625 328.846527099609375 324.637725830078125 317.444183349609375 310.64886474609375 303.69329833984375 299.69732666015625 296.007904052734375 295.601409912109375 294.4088134765625 291.427154541015625 289.275115966796875 287.062530517578125 286.739349365234375 287.87847900390625 287.10333251953125 288.037811279296875 286.846466064453125 285.7154541015625 285.886749267578125 288.4193115234375 290.255523681640625 290.323455810546875 292.87322998046875 290.6488037109375 286.5623779296875 283.73907470703125 279.26739501953125 275.027191162109375 270.5736083984375 266.28839111328125 262.367401123046875 264.252166748046875 264.664215087890625 261.471405029296875 258.34783935546875 258.10430908203125 261.40631103515625 270.389251708984375 279.66827392578125 289.081695556640625 296.33465576171875 296.226470947265625 288.9229736328125 283.948089599609375 280.854156494140625 281.6405029296875 284.219757080078125 287.981231689453125 290.746337890625 290.84503173828125 302.477996826171875 315.899688720703125 315.71563720703125 285.505035400390625 264.874481201171875 262.000885009765625 263.438232421875 255.676971435546875 244.54058837890625 236.497344970703125 230.8110504150390625 228.17108154296875 222.8451995849609375 214.667724609375 212.1202850341796875 222.9213409423828125 235.52642822265625 250.34710693359375 255.71002197265625 262.40521240234375 267.75762939453125 278.082061767578125 294.87042236328125 299.943267822265625 301.264129638671875 294.8837890625 291.518829345703125 299.935821533203125 299.99468994140625 299.702606201171875 298.784637451171875 295.60028076171875 293.81817626953125 291.5592041015625 -9999 -9999 -9999 -9999 -9999 -9999 -9999 -9999 -9999 -9999 -9999 -9999 -9999 -9999 -9999
-9999 -9999 -9999 -9999 -9999 -9999 -9999 -9999 313.6807861328125 316.494659423828125 316.717803955078125 316.997467041015625 317.9398193359375 316.74969482421875 313.378875732421875 307.56842041015625 296.207427978515625 284.913299560546875 270.3839111328125 262.7823486328125 265.52667236328125 273.84423828125 285.35467529296875 296.575408935546875 306.822967529296875 310.30267333984375 313.02349853515625 317.734954833984375 319.88714599609375 325.048553466796875 323.562652587890625 318.6422119140625 311.127166748046875 304.03839111328125 299.264373779296875 294.401519775390625 291.5999755859375 291.685699462890625 290.09503173828125 287.761566162109375 285.88165283203125 285.84405517578125 286.79400634765625 286.1912841796875 285.8455810546875 284.69232177734375 284.372833251953125 284.458099365234375 285.55645751953125 286.49127197265625 287.263336181640625 289.086334228515625 289.66741943359375 289.343780517578125 290.89794921875 283.915130615234375 276.23358154296875 273.0885009765625 268.72430419921875 262.73040771484375 260.583526611328125 261.3275146484375 263.3077392578125 261.895477294921875 260.159271240234375 264.292022705078125 274.20379638671875 287.047760009765625 297.05877685546875 302.860076904296875 304.665771484375 299.0889892578125 292.22998046875 286.546112060546875 285.790313720703125 287.215118408203125 289.2332763671875 292.7005615234375 300.784027099609375 301.81048583984375 309.91595458984375 318.469696044921875 308.029022216796875 282.640838623046875 258.8839111328125 259.65704345703125 256.780059814453125 245.473602294921875 235.9800872802734375 230.083587646484375 226.2841339111328125 222.045562744140625 212.1201629638671875 216.9768218994140625 219.1158599853515625 228.31085205078125 240.9518890380859375 247.15911865234375 254.309112548828125 260.016998291015625 268.902862548828125 280.349639892578125 289.189239501953125 293.21099853515625 284.925445556640625 284.831756591796875 291.411102294921875 292.67474365234375 291.352325439453125 292.59991455078125 291.6256103515625 288.56396484375 286.22894287109375 -9999 -9999 -9999 -9999 -9999 -9999 -9999 -9999 -9999 -9999 -9999 -9999 -9999 -9999 -9999
-9999 -9999 -9999 -9999 -9999 -9999 -9999 -9999 -9999 326.945068359375 327.843505859375 329.208953857421875 327.809967041015625 325.0211181640625 323.8826904296875 320.48699951171875 315.305755615234375 307.23846435546875 289.706878662109375 271.34381103515625 262.278839111328125 267.398590087890625 275.066497802734375 284.514495849609375 293.14935302734375 302.845794677734375 307.52197265625 316.451904296875 317.57244873046875 320.623199462890625 320.607818603515625 317.10968017578125 312.236175537109375 304.354248046875 297.21026611328125 292.588043212890625 289.552947998046875 288.6195068359375 289.541534423828125 286.862701416015625 284.36376953125 284.841400146484375 286.192596435546875 285.9425048828125 286.505584716796875 283.97991943359375 283.267913818359375 283.149810791015625 284.454925537109375 284.46490478515625 285.450469970703125 286.990020751953125 286.84368896484375 285.528289794921875 287.1988525390625 284.503753662109375 277.76776123046875 275.925628662109375 269.523956298828125 265.528472900390625 258.1822509765625 259.0360107421875 261.098876953125 262.209625244140625 261.008270263671875 265.939483642578125 275.773590087890625 292.38983154296875 300.02142333984375 303.072906494140625 304.759918212890625 304.927825927734375 301.2872314453125 294.76495361328125 289.4791259765625 288.5958251953125 291.15301513671875 293.715362548828125 300.351531982421875 305.637298583984375 306.085479736328125 312.12127685546875 309.781097412109375 293.25494384765625 265.302642822265625 252.219512939453125 250.3867340087890625 244.346832275390625 236.62896728515625 228.8291778564453125 222.859649658203125 221.9021759033203125 212.12005615234375 212.78253173828125 218.7752227783203125 223.0712738037109375 232.02789306640625 235.8993377685546875 243.2716827392578125 250.5000457763671875 261.70721435546875 268.13897705078125 277.105255126953125 277.436798095703125 274.320220947265625 279.229339599609375 281.921539306640625 284.2314453125 284.20849609375 287.1849365234375 288.1453857421875 284.87030029296875 282.775970458984375 -9999 -9999 -9999 -9999 -9999 -9999 -9999 -9999 -9999 -9999 -9999 -9999 -9999 -9999 -9999
-9999 -9999 -9999 -9999 -9999 -9999 -9999 -9999 -9999 -9999 339.928802490234375 343.909423828125 343.699188232421875 337.5887451171875 331.66204833984375 328.45306396484375 326.868621826171875 323.534820556640625 308.246856689453125 285.47637939453125 265.291015625 261.68841552734375 264.3935546875 272.772430419921875 293.422821044921875 303.73187255859375 305.806671142578125 310.24517822265625 317.25225830078125 320.192840576171875 320.11383056640625 318.055633544921875 314.478668212890625 309.037841796875 301.753265380859375 294.49383544921875 287.144927978515625 285.6334228515625 286.90777587890625 286.066253662109375 283.38702392578125 283.7650146484375 285.302337646484375 285.286529541015625 285.067413330078125 284.45196533203125 282.8607177734375 282.860595703125 283.779571533203125 283.7796630859375 284.39581298828125 285.231719970703125 284.64447021484375 284.06219482421875 283.888824462890625 284.06561279296875 279.55218505859375 278.071014404296875 272.018646240234375 267.747344970703125 266.679351806640625 258.182159423828125 260.14154052734375 259.010711669921875 261.006683349609375 266.260894775390625 276.176544189453125 289.644989013671875 298.49066162109375 303.0054931640625 304.052154541015625 303.79296875 302.309722900390625 299.03204345703125 294.9078369140625 290.980072021484375 289.567291259765625 290.34765625 295.604461669921875 304.385589599609375 305.244659423828125 307.48406982421875 305.221710205078125 292.853515625 275.302886962890625 250.519683837890625 243.5240936279296875 237.787689208984375 234.099700927734375 226.0908050537109375 219.910430908203125 212.7355194091796875 219.5224609375 212.10675048828125 217.8650970458984375 220.632110595703125 222.8700714111328125 228.226043701171875 235.4488067626953125 243.0694732666015625 253.76947021484375 257.615478515625 266.109832763671875 269.66400146484375 266.829010009765625 271.33465576171875 276.231201171875 280.6839599609375 283.343902587890625 283.95782470703125 285.00469970703125 282.57379150390625 275.9775390625 -9999 -9999 -9999 -9999 -9999 -9999 -9999 -9999 -9999 -9999 -9999 -9999 -9999 -9999 -9999
-9999 -9999 -9999 -9999 -9999 -9999 -9999 -9999 327.0020751953125 340.17431640625 352.84295654296875 354.6683349609375 348.594024658203125 342.59649658203125 333.19244384765625 327.29779052734375 325.80322265625 326.638580322265625 317.941619873046875 299.50830078125 276.97186279296875 260.16729736328125 259.5911865234375 265.55889892578125 280.947265625 295.361602783203125 299.5172119140625 309.59674072265625 316.75244140625 326.823211669921875 333.0328369140625 329.316192626953125 320.890594482421875 314.379608154296875 309.67291259765625 302.925811767578125 289.6551513671875 281.773040771484375 281.154327392578125 283.163909912109375 282.091278076171875 283.031982421875 285.0394287109375 284.995880126953125 286.217529296875 287.231597900390625 283.248992919921875 282.860504150390625 284.021942138671875 284.21075439453125 286.763153076171875 286.7061767578125 284.04571533203125 283.1727294921875 282.3677978515625 285.402313232421875 287.50372314453125 282.868988037109375 275.30877685546875 267.9073486328125 267.480072021484375 258.575347900390625 256.97186279296875 257.8369140625 261.4276123046875 266.3277587890625 276.08770751953125 286.572174072265625 298.584320068359375 301.105133056640625 302.437896728515625 301.741668701171875 301.260040283203125 299.917022705078125 296.43634033203125 293.75201416015625 292.790252685546875 289.474822998046875 287.441986083984375 290.517242431640625 296.65899658203125 294.380645751953125 297.433013916015625 294.3094482421875 286.69757080078125 267.485076904296875 253.7499237060546875 239.8214569091796875 228.961700439453125 223.2053985595703125 218.9127655029296875 218.032257080078125 218.5028533935546875 212.1025543212890625 216.9791107177734375 218.2120208740234375 217.6174468994140625 223.29052734375 231.7351226806640625 237.852203369140625 244.6574249267578125 249.7093658447265625 256.396728515625 264.211700439453125 263.276092529296875 268.07257080078125 275.6357421875 280.379486083984375 282.384307861328125 281.510650634765625 281.4998779296875 281.092864990234375 275.9775390625 -9999 -9999 -9999 -9999 -9999 -9999 -9999 -9999 -9999 -9999 -9999 -9999 -9999 -9999 -9999
-9999 -9999 -9999 -9999 -9999 -9999 304.968170166015625 303.316741943359375 314.11456298828125 334.21759033203125 347.680633544921875 350.819061279296875 347.813262939453125 342.60009765625 334.8897705078125 329.09735107421875 324.449462890625 321.13458251953125 319.26116943359375 305.3203125 290.661956787109375 273.116973876953125 258.445556640625 260.29400634765625 270.275177001953125 258.407989501953125 286.919769287109375 296.0321044921875 309.318939208984375 320.884063720703125 332.1898193359375 334.00897216796875 326.305389404296875 319.729248046875 315.93017578125 310.4029541015625 300.8489990234375 285.909942626953125 277.28594970703125 278.2222900390625 279.272491455078125 278.808929443359375 282.350799560546875 284.4141845703125 287.7105712890625 293.031524658203125 287.608489990234375 285.002105712890625 295.97064208984375 289.585601806640625 295.57794189453125 295.340606689453125 288.3135986328125 282.74847412109375 279.992828369140625 282.0576171875 289.4320068359375 284.647430419921875 277.94488525390625 268.2109375 265.220458984375 261.267547607421875 256.0135498046875 257.79437255859375 260.649871826171875 265.595306396484375 275.778717041015625 287.2064208984375 296.61517333984375 300.6357421875 301.04327392578125 299.3206787109375 298.4063720703125 297.558746337890625 296.082763671875 293.138946533203125 292.06390380859375 293.51416015625 290.686676025390625 287.16387939453125 284.567779541015625 281.8643798828125 282.727020263671875 287.06756591796875 281.371124267578125 274.5316162109375 272.49005126953125 258.405029296875 243.6942901611328125 227.5128021240234375 217.7899932861328125 216.502105712890625 210.8155059814453125 212.1025543212890625 216.5179595947265625 216.1182708740234375 215.281768798828125 220.88299560546875 230.1095428466796875 234.2659454345703125 240.714080810546875 244.463348388671875 249.83758544921875 253.825958251953125 258.787109375 263.97802734375 270.197601318359375 278.071197509765625 279.425567626953125 277.297943115234375 276.463134765625 274.2772216796875 273.2921142578125 -9999 -9999 -9999 -9999 -9999 -9999 -9999 -9999 -9999 -9999 -9999 -9999 -9999 -9999 -9999
-9999 -9999 -9999 -9999 311.825469970703125 -9999 307.10321044921875 302.54132080078125 301.047119140625 317.42529296875 338.715606689453125 346.248291015625 346.755279541015625 343.7567138671875 335.915252685546875 326.51275634765625 321.463104248046875 316.424591064453125 313.783935546875 309.014892578125 297.244598388671875 285.34295654296875 264.43292236328125 257.082733154296875 258.40789794921875 268.08331298828125 280.212799072265625 291.54510498046875 288.610565185546875 313.154205322265625 320.959686279296875 328.11529541015625 328.67327880859375 325.27093505859375 322.7767333984375 316.499847412109375 307.6053466796875 294.7479248046875 283.0052490234375 272.488983154296875 273.37432861328125 276.371917724609375 277.31756591796875 280.93896484375 283.450958251953125 287.77294921875 287.534088134765625 278.642181396484375 288.126861572265625 287.90533447265625 302.772918701171875 301.99713134765625 297.766937255859375 285.843353271484375 281.36285400390625 278.819091796875 282.939178466796875 283.10009765625 276.8245849609375 268.144866943359375 259.46502685546875 260.092987060546875 255.833221435546875 256.9638671875 259.1170654296875 263.99542236328125 274.86572265625 287.7158203125 298.1429443359375 302.380126953125 300.3133544921875 296.53546142578125 295.016937255859375 293.886383056640625 293.17822265625 291.8809814453125 293.76611328125 299.95465087890625 297.772430419921875 296.154327392578125 291.98101806640625 283.439697265625 277.650054931640625 279.6031494140625 277.146148681640625 272.73602294921875 268.478759765625 266.01214599609375 262.30194091796875 243.4189910888671875 219.55511474609375 214.7123260498046875 210.1526947021484375 214.5202789306640625 213.733306884765625 213.5585479736328125 213.311859130859375 219.3377685546875 220.88299560546875 233.8788604736328125 240.69488525390625 243.638427734375 246.208892822265625 248.8072052001953125 255.06988525390625 259.194000244140625 263.222930908203125 273.326690673828125 273.376220703125 271.63983154296875 271.913604736328125 265.227935791015625 272.981353759765625 -9999 -9999 -9999 -9999 -9999 -9999 -9999 -9999 -9999 -9999 -9999 -9999 -9999 -9999 -9999
-9999 -9999 -9999 304.195587158203125 301.320037841796875 304.46337890625 316.76690673828125 305.655975341796875 298.56671142578125 289.699676513671875 329.488006591796875 343.01202392578125 341.974151611328125 339.975555419921875 336.451446533203125 325.36334228515625 316.1859130859375 311.11370849609375 306.392913818359375 305.583648681640625 296.00531005859375 285.408477783203125 262.3294677734375 254.2117767333984375 252.6520233154296875 258.56390380859375 270.19940185546875 288.6104736328125 300.98114013671875 313.4398193359375 326.1441650390625 331.647247314453125 335.545379638671875 328.0882568359375 325.68206787109375 319.758056640625 312.855987548828125 302.483978271484375 295.143218994140625 283.28265380859375 268.905181884765625 272.204132080078125 272.28350830078125 273.415557861328125 280.76220703125 284.549407958984375 287.492095947265625 284.3685302734375 278.642181396484375 279.656341552734375 290.336639404296875 302.267059326171875 296.919097900390625 288.4912109375 288.48577880859375 281.547882080078125 271.581573486328125 277.51715087890625 273.5323486328125 266.827911376953125 259.869049072265625 257.233551025390625 253.9952239990234375 255.248809814453125 257.884765625 262.255462646484375 272.908233642578125 286.972381591796875 294.760467529296875 299.70745849609375 299.350677490234375 294.322509765625 291.348297119140625 289.65997314453125 288.52362060546875 289.241546630859375 293.265350341796875 301.025634765625 302.926422119140625 305.55023193359375 301.91754150390625 288.051025390625 279.098541259765625 275.6829833984375 272.099334716796875 266.260986328125 261.139892578125 257.59930419921875 251.88555908203125 238.0452117919921875 220.4691314697265625 207.3499755859375 208.0005340576171875 212.6942291259765625 212.2609405517578125 210.806243896484375 212.329010009765625 219.225830078125 225.479827880859375 233.53070068359375 240.157135009765625 242.844390869140625 244.7338409423828125 247.8826446533203125 251.00421142578125 254.2191619873046875 257.94512939453125 265.706024169921875 262.60723876953125 264.909088134765625 266.765106201171875 265.22784423828125 270.62371826171875 271.9190673828125 -9999 -9999 -9999 -9999 -9999 -9999 -9999 -9999 -9999 -9999 -9999 -9999 -9999 -9999
-9999 -9999 -9999 298.87115478515625 293.570281982421875 289.56427001953125 300.18743896484375 304.693115234375 297.221954345703125 289.6995849609375 300.018096923828125 325.23626708984375 331.44000244140625 339.06329345703125 334.990203857421875 328.594390869140625 320.44989013671875 313.463714599609375 307.942413330078125 301.240386962890625 294.54278564453125 281.11199951171875 268.2071533203125 253.9061737060546875 252.6519012451171875 256.16259765625 261.996063232421875 284.794677734375 311.976226806640625 320.844573974609375 327.691741943359375 331.520111083984375 333.89947509765625 331.0242919921875 325.846282958984375 320.7806396484375 312.346923828125 305.220306396484375 296.931243896484375 288.43646240234375 273.59246826171875 267.848175048828125 269.7965087890625 269.625244140625 274.9688720703125 281.600982666015625 286.331817626953125 285.857757568359375 279.692626953125 273.246612548828125 275.727691650390625 293.094512939453125 292.147430419921875 287.01959228515625 284.06964111328125 279.6494140625 271.581787109375 269.878875732421875 272.560516357421875 266.0545654296875 260.600738525390625 257.9716796875 256.761566162109375 253.9952239990234375 257.04144287109375 260.6329345703125 269.39324951171875 285.129364013671875 294.330047607421875 295.762664794921875 295.771697998046875 293.693145751953125 287.25628662109375 285.07568359375 284.8856201171875 285.498565673828125 288.97113037109375 300.620086669921875 312.2598876953125 317.899932861328125 310.126129150390625 297.49853515625 285.637786865234375 274.0660400390625 271.320587158203125 261.19195556640625 256.00787353515625 254.1674957275390625 249.345367431640625 238.7380218505859375 222.1365203857421875 210.665740966796875 207.349853515625 211.84088134765625 208.569305419921875 208.879058837890625 212.15362548828125 216.261322021484375 223.2535858154296875 233.472503662109375 241.96551513671875 245.2298583984375 246.0700531005859375 246.1450347900390625 247.7895965576171875 251.6353607177734375 256.6260986328125 261.62359619140625 258.49346923828125 258.789093017578125 260.462005615234375 262.143402099609375 266.366912841796875 269.31597900390625 -9999 -9999 -9999 -9999 -9999 -9999 -9999 -9999 -9999 -9999 -9999 -9999 -9999 -9999
-9999 -9999 -9999 282.64007568359375 281.41778564453125 280.852630615234375 281.507568359375 290.382659912109375 291.3271484375 285.665313720703125 287.788970947265625 294.952545166015625 309.641632080078125 322.47503662109375 330.27252197265625 323.930633544921875 320.517730712890625 314.5877685546875 308.33306884765625 299.199920654296875 291.4439697265625 283.218658447265625 275.1334228515625 258.2392578125 249.4842071533203125 250.0671844482421875 252.3031158447265625 266.948883056640625 308.500152587890625 319.995025634765625 328.286102294921875 331.132354736328125 330.162109375 330.26275634765625 324.23638916015625 319.662109375 312.192596435546875 306.14495849609375 299.96441650390625 291.004058837890625 279.5908203125 267.3438720703125 266.58953857421875 267.384124755859375 278.53253173828125 282.027679443359375 281.2249755859375 279.1024169921875 277.275360107421875 270.652435302734375 266.098785400390625 278.543701171875 287.739227294921875 285.63592529296875 280.824737548828125 277.155517578125 270.824371337890625 264.783660888671875 269.43780517578125 264.737457275390625 259.013702392578125 257.27001953125 255.1889801025390625 253.420562744140625 256.45550537109375 258.52294921875 264.573211669921875 278.62152099609375 290.576568603515625 292.302947998046875 290.3350830078125 289.39404296875 285.3370361328125 281.81732177734375 281.237030029296875 280.055755615234375 285.506195068359375 301.77099609375 317.8414306640625 -9999 306.122528076171875 297.351165771484375 289.320770263671875 274.37677001953125 268.151611328125 263.09271240234375 252.492095947265625 246.7543792724609375 242.5158233642578125 234.03900146484375 221.509552001953125 210.7871551513671875 205.74560546875 209.10906982421875 205.736419677734375 205.476531982421875 207.1311492919921875 214.7190093994140625 224.4173431396484375 234.1405029296875 242.408935546875 246.0802459716796875 245.3921661376953125 245.20941162109375 244.90399169921875 249.1235809326171875 254.411590576171875 260.588348388671875 258.48236083984375 253.950286865234375 258.253326416015625 262.245452880859375 266.053375244140625 -9999 -9999 -9999 -9999 -9999 -9999 -9999 -9999 -9999 -9999 -9999 -9999 -9999 -9999 -9999
-9999 -9999 -9999 269.28790283203125 270.502899169921875 270.24652099609375 269.867462158203125 271.472259521484375 279.711700439453125 281.840423583984375 278.296051025390625 282.7178955078125 286.7535400390625 295.416778564453125 304.990875244140625 309.602508544921875 320.472869873046875 315.367889404296875 304.404510498046875 294.585906982421875 289.549224853515625 284.65179443359375 274.462677001953125 268.415679931640625 255.8287811279296875 246.219207763671875 244.9774627685546875 249.884124755859375 276.5677490234375 307.7603759765625 321.939300537109375 331.0631103515625 327.86529541015625 326.926116943359375 322.3460693359375 316.794281005859375 312.104827880859375 306.065765380859375 302.699859619140625 294.5911865234375 282.8619384765625 269.74932861328125 267.017852783203125 263.754302978515625 266.716461181640625 277.88385009765625 280.64324951171875 279.47320556640625 274.10693359375 269.910736083984375 264.25830078125 262.28839111328125 279.2098388671875 281.9840087890625 276.423431396484375 272.1529541015625 269.58526611328125 262.8580322265625 262.085418701171875 263.805023193359375 258.489654541015625 255.8639984130859375 251.55145263671875 253.2394561767578125 255.7501220703125 256.775543212890625 261.3662109375 270.151458740234375 281.88677978515625 286.648529052734375 286.119659423828125 284.155975341796875 281.969573974609375 277.35302734375 277.129669189453125 275.22900390625 280.7203369140625 294.8800048828125 302.359375 307.7325439453125 300.06549072265625 291.438446044921875 287.03997802734375 277.117645263671875 266.185516357421875 261.843353271484375 254.048248291015625 244.015655517578125 237.5763702392578125 228.9587554931640625 220.384613037109375 212.183319091796875 202.5977783203125 203.3000030517578125 201.2780303955078125 204.1961212158203125 204.5812225341796875 214.4345550537109375 225.797882080078125 236.1525421142578125 242.2749481201171875 246.03948974609375 245.402313232421875 244.6846466064453125 243.8755950927734375 245.7582244873046875 248.2404937744140625 251.955841064453125 251.495086669921875 253.950286865234375 256.6734619140625 259.90716552734375 266.103424072265625 269.118255615234375 270.40179443359375 -9999 -9999 -9999 -9999 298.814453125 -9999 -9999 -9999 296.314727783203125 -9999 -9999 -9999 -9999
