ncols        215
nrows        23
xllcorner    728366
yllcorner    7132230
cellsize     40.000000000000
NODATA_value -9999
187.3240966796875 186.4673614501953125 186.435272216796875 186.70452880859375 187.22186279296875 189.30120849609375 190.11883544921875 191.291107177734375 194.229644775390625 196.2764892578125 197.9733428955078125 198.5745697021484375 199.5573272705078125 201.0478515625 202.6739654541015625 204.315093994140625 205.943115234375 204.1350250244140625 202.3004302978515625 201.7842254638671875 198.89923095703125 196.5283966064453125 201.51580810546875 208.809600830078125 209.0266571044921875 215.8820037841796875 222.2771148681640625 227.1311187744140625 231.4037933349609375 233.5931854248046875 236.6145477294921875 246.5070037841796875 254.0220489501953125 258.024627685546875 259.590606689453125 259.947235107421875 259.009521484375 256.430816650390625 252.955413818359375 250.2924652099609375 248.822906494140625 248.8385009765625 249.324981689453125 249.8032989501953125 249.131134033203125 248.2900848388671875 248.588836669921875 249.4920654296875 249.21563720703125 248.89178466796875 247.778228759765625 247.3917388916015625 247.5999603271484375 247.718231201171875 247.62261962890625 247.7638397216796875 248.6317901611328125 246.5893402099609375 243.54046630859375 241.2283477783203125 238.1069793701171875 235.5107879638671875 231.177886962890625 229.5298614501953125 229.9466094970703125 229.761993408203125 229.8365631103515625 227.9940948486328125 230.8184814453125 232.45635986328125 230.9619598388671875 231.5496978759765625 230.985198974609375 229.7903289794921875 228.89569091796875 226.518951416015625 225.0024566650390625 222.241119384765625 217.93914794921875 212.7108306884765625 213.515411376953125 214.828399658203125 214.7722930908203125 214.4346466064453125 214.0721435546875 214.0937347412109375 213.806793212890625 212.359222412109375 210.799713134765625 208.8059844970703125 208.774139404296875 211.863037109375 212.6849212646484375 214.2449493408203125 215.50616455078125 215.5803375244140625 215.3101654052734375 215.7480010986328125 216.2114105224609375 215.79144287109375 214.5188140869140625 209.6513824462890625 206.896942138671875 207.339447021484375 206.0349273681640625 204.024383544921875 202.6606597900390625 203.5019683837890625 202.79412841796875 203.209075927734375 203.8473663330078125 205.4280548095703125 203.9322662353515625 203.73388671875 203.5729827880859375 201.133026123046875 202.1533203125 202.2113494873046875 202.404449462890625 201.9178619384765625 201.1915283203125 201.6516876220703125 202.0505523681640625 202.1310577392578125 200.4586334228515625 199.5146636962890625 198.3156890869140625 196.8811798095703125 194.375640869140625 191.823699951171875 192.9074554443359375 192.37054443359375 195.4910125732421875 195.813995361328125 197.003173828125 198.8062744140625 198.47869873046875 197.4705352783203125 197.6918792724609375 200.356597900390625 202.9744720458984375 205.9373779296875 204.040069580078125 193.876434326171875 193.3131561279296875 190.5297393798828125 188.8998565673828125 186.4029693603515625 181.3113250732421875 176.3908233642578125 181.45196533203125 185.343048095703125 186.1983642578125 188.13104248046875 188.5164642333984375 185.58697509765625 188.667510986328125 190.5834503173828125 191.6920928955078125 194.4314117431640625 195.710174560546875 201.56414794921875 208.6680145263671875 216.997894287109375 222.1483306884765625 228.2175750732421875 231.9442138671875 233.0581207275390625 232.1164093017578125 233.878204345703125 234.33984375 233.446563720703125 235.2124176025390625 236.1762237548828125 237.6570587158203125 239.9823150634765625 243.3092193603515625 247.18524169921875 252.2187957763671875 259.476531982421875 267.583038330078125 272.013275146484375 275.411163330078125 277.97705078125 279.0712890625 278.85162353515625 277.147705078125 274.7337646484375 276.516998291015625 277.573486328125 278.26025390625 278.729461669921875 278.891265869140625 278.11102294921875 281.462005615234375 290.414520263671875 295.388519287109375 298.2296142578125 303.277740478515625 306.055389404296875 307.032379150390625 309.655364990234375 311.0142822265625 320.211578369140625 -9999 -9999 -9999 -9999 -9999 -9999 -9999 -9999 -9999 -9999 -9999
186.83648681640625 186.7879180908203125 185.7405242919921875 185.9145050048828125 187.149444580078125 188.231109619140625 189.2870941162109375 190.0924072265625 192.635223388671875 195.3960418701171875 198.4034271240234375 199.357757568359375 199.554718017578125 200.7252044677734375 202.27801513671875 204.934967041015625 206.5727081298828125 203.6873016357421875 200.4853057861328125 199.612548828125 198.40155029296875 193.459320068359375 193.8397216796875 202.7677459716796875 207.9066925048828125 214.406982421875 219.9007568359375 224.9965362548828125 230.149261474609375 233.049560546875 234.746673583984375 239.36993408203125 243.3740234375 248.4767608642578125 255.3375244140625 259.729766845703125 255.2978363037109375 251.11279296875 247.0987548828125 243.3100433349609375 241.58935546875 241.3094635009765625 241.966796875 243.19012451171875 244.9945831298828125 245.4649505615234375 245.1361541748046875 245.728729248046875 245.5041961669921875 245.3409271240234375 244.8620758056640625 244.629119873046875 244.971405029296875 245.124908447265625 244.9529266357421875 245.035491943359375 245.787139892578125 245.4503936767578125 242.8148956298828125 240.188995361328125 237.5972747802734375 235.59521484375 233.0363311767578125 228.808380126953125 228.276763916015625 229.047119140625 228.6653289794921875 227.0887451171875 230.1533660888671875 230.69989013671875 229.118560791015625 228.6766815185546875 228.686767578125 228.4147491455078125 229.248291015625 228.0630340576171875 225.0060882568359375 221.7507781982421875 217.5648193359375 214.797027587890625 210.4657745361328125 212.7730560302734375 211.857513427734375 210.96002197265625 211.382598876953125 212.4334259033203125 212.8233795166015625 211.6375885009765625 209.490509033203125 207.4697418212890625 207.617889404296875 209.321502685546875 210.7421112060546875 212.5960845947265625 214.3081207275390625 214.31201171875 214.1428680419921875 215.7392120361328125 216.688140869140625 217.0777130126953125 215.3630523681640625 211.3300628662109375 206.2038726806640625 204.3555755615234375 202.988037109375 203.5697479248046875 201.6792755126953125 200.817169189453125 201.53704833984375 200.7444915771484375 200.8246917724609375 201.79876708984375 202.146942138671875 203.1799468994140625 203.9447479248046875 200.1081085205078125 198.201629638671875 197.6031951904296875 199.1944580078125 199.9994049072265625 199.532073974609375 200.236236572265625 199.726593017578125 199.3043060302734375 199.0609893798828125 197.8128204345703125 197.2807769775390625 195.7146148681640625 194.3616790771484375 191.1827239990234375 189.8823699951171875 189.9977569580078125 192.884002685546875 193.9270782470703125 194.728515625 196.61260986328125 197.7393035888671875 195.6978912353515625 193.0357818603515625 194.6504058837890625 196.6857147216796875 200.173980712890625 196.9719696044921875 194.5372314453125 194.0787353515625 189.86212158203125 188.2336273193359375 186.6457977294921875 183.360687255859375 175.248199462890625 178.7287445068359375 181.037017822265625 184.13458251953125 186.2661285400390625 185.5869293212890625 188.3902740478515625 190.0120849609375 189.41607666015625 192.0904693603515625 194.264556884765625 194.386077880859375 197.71868896484375 204.2032470703125 211.78717041015625 218.9787750244140625 224.769317626953125 229.2235870361328125 230.330902099609375 230.060821533203125 231.5517578125 232.2094879150390625 231.007781982421875 233.435302734375 234.66082763671875 236.023651123046875 238.408477783203125 241.887420654296875 246.1999664306640625 251.016876220703125 258.48779296875 266.08306884765625 271.0269775390625 274.691680908203125 277.879119873046875 279.882965087890625 279.943145751953125 278.6568603515625 276.080780029296875 277.0411376953125 277.9290771484375 278.570831298828125 278.916900634765625 278.84185791015625 278.227203369140625 281.7958984375 290.253082275390625 296.652008056640625 300.54510498046875 303.813385009765625 308.75592041015625 311.43634033203125 315.425994873046875 319.10797119140625 325.949432373046875 -9999 -9999 -9999 -9999 -9999 -9999 -9999 -9999 -9999 -9999 -9999
185.17138671875 186.005584716796875 185.0367431640625 185.0815582275390625 185.3255615234375 187.173980712890625 188.0511474609375 189.200653076171875 190.5389862060546875 192.7324371337890625 197.06365966796875 199.43963623046875 200.2304840087890625 200.173675537109375 202.546905517578125 207.6590728759765625 206.1177978515625 200.4461212158203125 197.2742156982421875 197.136810302734375 196.8156890869140625 193.4387969970703125 190.6986236572265625 197.3580322265625 205.03662109375 211.3748779296875 217.9981536865234375 224.7733612060546875 229.9622650146484375 233.33270263671875 234.1919097900390625 236.8988189697265625 238.0687408447265625 241.1807861328125 246.3895721435546875 246.16204833984375 244.3668060302734375 242.567535400390625 239.7570037841796875 236.987884521484375 236.0337066650390625 236.587799072265625 237.8300933837890625 239.1574554443359375 241.3000335693359375 242.6082916259765625 242.124755859375 241.9102935791015625 242.077239990234375 242.1837615966796875 242.55572509765625 241.3907318115234375 242.177032470703125 242.4063568115234375 242.227264404296875 242.1519622802734375 242.8116912841796875 243.2607574462890625 241.4720001220703125 239.2562255859375 236.825286865234375 234.801422119140625 232.702117919921875 230.0788421630859375 226.98651123046875 226.9864654541015625 227.2535858154296875 225.4053497314453125 226.3637237548828125 227.3836212158203125 227.085052490234375 226.10589599609375 226.0143585205078125 226.1399993896484375 227.521026611328125 227.593505859375 225.1148681640625 221.0603790283203125 216.5121917724609375 213.9389801025390625 209.1405181884765625 209.4737396240234375 209.4372100830078125 208.0544281005859375 208.291412353515625 208.8150177001953125 209.8260650634765625 210.417327880859375 208.8721923828125 206.61968994140625 206.29595947265625 207.6978302001953125 208.643585205078125 210.38262939453125 212.2470855712890625 211.97021484375 213.3235321044921875 216.234039306640625 216.69720458984375 216.605072021484375 215.692474365234375 212.952056884765625 208.281158447265625 205.5936737060546875 203.6518096923828125 201.3080902099609375 198.9791259765625 199.9725494384765625 198.562835693359375 199.0814361572265625 198.0364532470703125 199.4443511962890625 199.714202880859375 201.43280029296875 203.1312255859375 201.3155059814453125 199.4850311279296875 197.3727569580078125 195.951080322265625 197.6639404296875 197.8718719482421875 197.710968017578125 197.8100128173828125 197.715667724609375 197.959136962890625 196.4610595703125 196.0103302001953125 194.80352783203125 193.753662109375 192.458526611328125 188.1525726318359375 186.988250732421875 188.6562957763671875 190.97637939453125 192.00836181640625 193.48883056640625 194.6783905029296875 193.4713287353515625 190.1463165283203125 192.4131927490234375 193.938751220703125 196.66741943359375 194.2185821533203125 194.948394775390625 191.00634765625 189.1461334228515625 188.5771484375 188.6573638916015625 184.3631591796875 175.248199462890625 173.55621337890625 178.090362548828125 182.58184814453125 184.5543975830078125 183.9259033203125 187.9959869384765625 189.1798095703125 187.8019256591796875 190.7906341552734375 191.734375 192.4068756103515625 195.01483154296875 200.414093017578125 206.3730316162109375 216.033050537109375 221.4786834716796875 225.6884002685546875 227.41973876953125 226.762420654296875 228.4342498779296875 228.2145233154296875 228.9690093994140625 231.26861572265625 233.31475830078125 234.7829437255859375 236.735870361328125 240.6808013916015625 245.518402099609375 250.4434661865234375 258.157379150390625 265.588043212890625 270.8565673828125 274.435699462890625 277.104888916015625 279.71759033203125 280.427886962890625 279.82342529296875 278.22998046875 276.658538818359375 278.334808349609375 278.720611572265625 278.856719970703125 279.27191162109375 280.50372314453125 283.404022216796875 289.583404541015625 296.85809326171875 300.739990234375 307.9342041015625 314.714263916015625 317.711669921875 322.78167724609375 325.9566650390625 329.596588134765625 -9999 -9999 -9999 -9999 -9999 -9999 -9999 -9999 -9999 -9999 -9999
185.063262939453125 184.589691162109375 184.31231689453125 184.302642822265625 185.74993896484375 186.2541046142578125 186.9913482666015625 188.3435211181640625 189.3543701171875 190.505706787109375 195.2274322509765625 201.267974853515625 202.0866546630859375 198.02447509765625 199.3238677978515625 203.10888671875 201.430999755859375 196.493499755859375 195.344024658203125 195.4286346435546875 195.5816650390625 190.346923828125 190.5610198974609375 197.87969970703125 203.8607177734375 208.5865325927734375 215.568084716796875 223.874298095703125 227.8833465576171875 232.0483245849609375 231.965301513671875 235.54278564453125 234.10943603515625 233.3309783935546875 233.1250762939453125 232.93902587890625 233.1829833984375 234.222137451171875 233.789703369140625 233.197784423828125 233.68145751953125 234.623748779296875 236.147125244140625 237.029541015625 237.8125152587890625 239.7568511962890625 239.4505767822265625 239.0751190185546875 239.2292633056640625 239.4510040283203125 239.7204437255859375 238.959014892578125 239.5669708251953125 239.8682708740234375 239.162384033203125 238.6166229248046875 238.81964111328125 239.80877685546875 239.728424072265625 238.823211669921875 236.2863311767578125 234.21466064453125 232.59637451171875 230.345672607421875 228.5010223388671875 227.4163665771484375 225.1358489990234375 225.657135009765625 223.52886962890625 223.5656280517578125 224.87335205078125 224.4734039306640625 224.0882110595703125 224.049591064453125 224.616973876953125 224.6008453369140625 222.94207763671875 220.5772857666015625 216.605560302734375 213.3028717041015625 208.4332275390625 204.2581939697265625 205.62359619140625 205.144287109375 205.3889923095703125 205.11944580078125 205.24591064453125 206.2955780029296875 207.5325164794921875 206.7265777587890625 205.06201171875 206.6918182373046875 207.27032470703125 208.6115264892578125 209.6862030029296875 209.8587646484375 212.85394287109375 217.166534423828125 217.0520782470703125 216.4905853271484375 216.023834228515625 214.3033905029296875 210.5526275634765625 206.7104034423828125 204.58380126953125 203.5283203125 199.42315673828125 197.4949798583984375 196.204315185546875 196.0291748046875 196.235382080078125 196.7418060302734375 196.9115753173828125 198.4088287353515625 199.9905853271484375 200.077545166015625 199.09259033203125 198.856964111328125 196.1614227294921875 195.34344482421875 197.0566558837890625 195.501312255859375 194.844482421875 195.3849945068359375 195.4741973876953125 194.4454345703125 193.1501922607421875 194.0629119873046875 192.6672210693359375 191.5158538818359375 187.95703125 184.943695068359375 185.8763885498046875 187.5214080810546875 188.9681243896484375 189.922332763671875 190.123046875 187.8922119140625 188.7205657958984375 190.639007568359375 191.284820556640625 192.145965576171875 194.254608154296875 193.365875244140625 190.8803253173828125 188.8383941650390625 188.0373992919921875 187.9669952392578125 185.667694091796875 178.44500732421875 171.128997802734375 174.8189239501953125 179.2342681884765625 179.7335052490234375 179.733551025390625 187.9029541015625 187.8892364501953125 187.574951171875 187.4206390380859375 189.259765625 190.9115447998046875 193.0105133056640625 197.2938995361328125 202.793060302734375 212.2890167236328125 218.7285003662109375 221.176483154296875 221.3445281982421875 219.5427703857421875 223.5235748291015625 225.274749755859375 226.68609619140625 228.548797607421875 230.8300018310546875 232.647064208984375 235.031585693359375 239.6890106201171875 245.1512298583984375 250.8094482421875 258.2655029296875 265.652313232421875 271.2552490234375 274.747650146484375 276.816314697265625 279.027008056640625 280.3924560546875 280.41253662109375 279.346221923828125 277.127197265625 278.356048583984375 278.62677001953125 279.105438232421875 280.209930419921875 284.16802978515625 287.125274658203125 291.782257080078125 298.883392333984375 306.47509765625 311.909027099609375 316.15386962890625 323.448944091796875 327.181976318359375 331.29052734375 -9999 -9999 -9999 -9999 -9999 -9999 -9999 -9999 -9999 -9999 -9999 -9999
186.2167205810546875 185.870025634765625 184.976898193359375 184.3354644775390625 184.262908935546875 186.4442138671875 187.3574981689453125 188.094879150390625 188.938323974609375 189.637420654296875 191.4674072265625 197.3281707763671875 196.37200927734375 194.3428497314453125 198.7056732177734375 200.644317626953125 196.695709228515625 194.126953125 193.8025665283203125 194.097930908203125 193.833709716796875 190.3468780517578125 193.2856597900390625 197.8235321044921875 200.1181793212890625 204.7885589599609375 211.2789764404296875 216.5781097412109375 222.678375244140625 226.9311981201171875 226.544158935546875 225.8957061767578125 226.012115478515625 225.843292236328125 225.96337890625 226.1420745849609375 226.9435577392578125 229.5083465576171875 230.7164459228515625 231.283843994140625 231.9214324951171875 233.1060943603515625 234.400787353515625 234.4778594970703125 234.18060302734375 235.165771484375 236.62445068359375 236.3035888671875 237.2468414306640625 238.2103118896484375 237.145172119140625 236.0081634521484375 237.1045989990234375 237.74725341796875 236.9676055908203125 236.573822021484375 236.7566375732421875 237.1605072021484375 237.9606170654296875 238.298370361328125 235.928863525390625 234.00128173828125 232.947662353515625 230.560089111328125 228.186431884765625 226.673583984375 225.6029510498046875 223.65899658203125 222.397491455078125 221.263275146484375 222.8991241455078125 223.3805389404296875 222.86749267578125 222.710906982421875 222.9610595703125 222.1847991943359375 221.3230743408203125 219.76446533203125 216.34027099609375 213.4908905029296875 209.60821533203125 204.8780975341796875 203.325927734375 202.3447418212890625 202.29046630859375 203.4282989501953125 203.542205810546875 203.3221282958984375 203.5392608642578125 205.184478759765625 204.076202392578125 205.508209228515625 205.6181793212890625 206.035247802734375 206.252410888671875 207.982666015625 212.08428955078125 216.0718841552734375 216.6649169921875 216.23760986328125 215.6212921142578125 214.33123779296875 212.0503997802734375 208.10943603515625 205.8721160888671875 205.031585693359375 202.1522369384765625 198.9907684326171875 196.77825927734375 194.2845611572265625 194.614654541015625 194.385406494140625 194.6445770263671875 193.9290924072265625 195.696502685546875 196.9308013916015625 196.650238037109375 196.963531494140625 197.2874755859375 194.570465087890625 196.9101715087890625 195.0619964599609375 193.46600341796875 193.149505615234375 193.3676910400390625 192.635986328125 190.8624420166015625 191.68817138671875 191.2274017333984375 189.7513275146484375 186.9982452392578125 183.3761444091796875 184.4071044921875 184.9378662109375 186.585906982421875 187.0634765625 186.6424407958984375 184.705780029296875 188.5722198486328125 189.2886505126953125 190.0968017578125 190.7038726806640625 190.885284423828125 191.4263153076171875 190.8313446044921875 188.954376220703125 187.86181640625 187.8004150390625 187.86297607421875 181.730712890625 171.6158447265625 171.043914794921875 173.8234405517578125 179.989013671875 183.3294525146484375 186.5819549560546875 186.3253173828125 183.6017608642578125 185.9480133056640625 189.6600189208984375 192.78106689453125 194.90020751953125 196.368499755859375 200.015960693359375 206.70819091796875 213.7713470458984375 216.0597686767578125 214.4937744140625 213.152618408203125 218.9228057861328125 222.3343353271484375 224.5663604736328125 225.4738616943359375 227.6712799072265625 230.0307159423828125 233.416259765625 239.109954833984375 245.8187713623046875 252.52056884765625 259.335052490234375 265.574737548828125 271.138916015625 274.906158447265625 276.826934814453125 278.2283935546875 279.607513427734375 280.227752685546875 279.95062255859375 277.735443115234375 277.521484375 278.667755126953125 279.142333984375 280.887115478515625 285.55780029296875 290.022125244140625 294.9649658203125 303.186248779296875 313.64678955078125 316.502044677734375 319.283447265625 326.51617431640625 331.890625 -9999 -9999 -9999 -9999 -9999 -9999 -9999 -9999 -9999 -9999 -9999 -9999 -9999
188.3073883056640625 188.2396087646484375 187.5550994873046875 186.2024993896484375 185.0104522705078125 184.2628631591796875 184.2628021240234375 185.99700927734375 187.6121978759765625 188.60284423828125 189.75616455078125 192.3622894287109375 192.075958251953125 192.6095428466796875 194.6363983154296875 195.2575836181640625 193.6735076904296875 193.0219879150390625 193.143524169921875 193.3107147216796875 190.384033203125 187.8373260498046875 191.92730712890625 194.585693359375 195.6073455810546875 198.011688232421875 203.9894256591796875 210.039276123046875 216.060089111328125 219.447967529296875 219.4739990234375 219.9093017578125 220.970916748046875 221.4394378662109375 221.4226531982421875 222.2858123779296875 223.0564727783203125 224.9274749755859375 226.9159088134765625 228.52984619140625 230.467803955078125 232.656402587890625 232.772552490234375 232.366790771484375 231.9864654541015625 231.7011871337890625 232.292999267578125 232.64251708984375 232.6504364013671875 234.0581207275390625 234.3218536376953125 233.19952392578125 233.5308837890625 233.6158294677734375 234.2063446044921875 234.4522247314453125 235.1307830810546875 235.29962158203125 235.635986328125 235.881072998046875 234.60626220703125 232.9600372314453125 232.147003173828125 231.176910400390625 228.4943084716796875 226.190582275390625 224.5355987548828125 223.60699462890625 221.0950469970703125 219.4168243408203125 219.552398681640625 221.914306640625 221.83306884765625 221.655059814453125 221.5480804443359375 220.4268951416015625 219.278717041015625 218.007568359375 216.0395660400390625 213.6854248046875 210.876220703125 206.9981689453125 205.0057830810546875 201.050537109375 198.932952880859375 199.0890655517578125 201.571380615234375 201.858154296875 199.979736328125 200.8144073486328125 202.4190216064453125 204.4296112060546875 203.6054229736328125 203.4339447021484375 203.7257232666015625 205.38720703125 209.7359771728515625 213.1082000732421875 215.190185546875 214.3214111328125 212.4014129638671875 211.3090972900390625 211.082916259765625 208.95941162109375 206.6402130126953125 205.3088836669921875 202.518310546875 200.980682373046875 198.0928802490234375 195.1103973388671875 192.257843017578125 192.9375152587890625 193.80352783203125 192.202178955078125 192.4929046630859375 193.8143157958984375 194.7892303466796875 194.30010986328125 195.150970458984375 193.0113067626953125 195.915679931640625 195.0985565185546875 192.297760009765625 189.7736968994140625 191.1954498291015625 191.9296875 188.982208251953125 188.53271484375 188.836517333984375 187.35418701171875 185.639007568359375 182.818511962890625 182.5623321533203125 183.4240875244140625 184.0841217041015625 184.6482086181640625 183.4627227783203125 184.6672821044921875 187.7959136962890625 189.322174072265625 189.3916168212890625 188.9373321533203125 188.73419189453125 189.629119873046875 190.0363311767578125 188.8702392578125 187.361328125 187.5648345947265625 186.27105712890625 181.403289794921875 175.5876617431640625 169.3858795166015625 175.44134521484375 181.2201690673828125 181.352386474609375 181.511138916015625 180.21636962890625 181.6946868896484375 185.3148193359375 187.569488525390625 192.847442626953125 198.0139007568359375 199.6810455322265625 200.006927490234375 203.3614349365234375 209.242095947265625 211.9786834716796875 209.5495758056640625 209.832061767578125 215.5723724365234375 219.89154052734375 220.0453948974609375 222.3114776611328125 222.0989227294921875 227.6855621337890625 232.3327789306640625 239.610015869140625 247.3273468017578125 254.9247894287109375 260.819427490234375 265.105804443359375 270.35125732421875 274.716278076171875 276.86627197265625 277.52447509765625 279.77874755859375 280.608154296875 279.742584228515625 278.03179931640625 277.567230224609375 278.830810546875 279.2733154296875 280.52215576171875 285.921844482421875 291.78704833984375 299.008026123046875 309.58721923828125 317.73828125 319.953704833984375 323.379364013671875 328.274627685546875 -9999 -9999 -9999 -9999 -9999 -9999 -9999 -9999 -9999 -9999 -9999 -9999 -9999 -9999
190.1368865966796875 190.02667236328125 189.3637847900390625 187.657867431640625 187.3835601806640625 187.1637115478515625 184.7623138427734375 183.6180572509765625 183.618011474609375 187.1997833251953125 189.236846923828125 190.0374603271484375 190.3794403076171875 191.221832275390625 193.2237701416015625 194.8825531005859375 192.7038726806640625 191.527252197265625 191.70587158203125 192.79302978515625 190.560821533203125 187.47674560546875 192.01837158203125 193.053619384765625 193.87347412109375 195.455718994140625 199.7984161376953125 202.443878173828125 205.224822998046875 207.76043701171875 210.34100341796875 213.55926513671875 215.812957763671875 217.3995513916015625 217.501922607421875 218.3052520751953125 218.9249114990234375 220.1208038330078125 221.6036834716796875 225.360565185546875 230.7074737548828125 232.3926239013671875 232.36383056640625 230.549560546875 230.80352783203125 228.9702606201171875 228.3290863037109375 228.9528350830078125 228.9471282958984375 228.7586669921875 229.0807342529296875 228.0848388671875 228.588134765625 229.9893646240234375 230.0025634765625 230.4884796142578125 232.275390625 233.1235198974609375 233.110687255859375 232.4801788330078125 232.0040435791015625 230.6923980712890625 229.9300537109375 229.333648681640625 228.2999725341796875 225.731048583984375 223.560791015625 222.3974761962890625 221.3400726318359375 218.760650634765625 217.9933929443359375 219.8547210693359375 220.5218963623046875 220.955596923828125 220.2171478271484375 219.30194091796875 217.98687744140625 217.0280914306640625 215.9423828125 214.4783477783203125 211.7815399169921875 207.8751983642578125 204.55450439453125 203.16064453125 201.190460205078125 197.1129302978515625 198.08282470703125 199.639495849609375 197.496734619140625 199.901092529296875 201.684722900390625 203.37762451171875 202.1219329833984375 201.765380859375 202.3916778564453125 203.6068267822265625 207.3329010009765625 211.819793701171875 214.30975341796875 213.552001953125 211.5677032470703125 209.201446533203125 207.7760467529296875 207.37744140625 206.4425811767578125 204.702789306640625 203.0014495849609375 202.02557373046875 199.677642822265625 196.2595367431640625 192.1945343017578125 191.1082305908203125 192.0799102783203125 189.518951416015625 189.8926239013671875 190.98065185546875 192.6893310546875 191.5076446533203125 191.464996337890625 190.1190032958984375 192.6721038818359375 192.4882659912109375 191.12255859375 188.2227020263671875 189.279754638671875 190.3096160888671875 188.0141143798828125 185.15118408203125 186.3634185791015625 185.420379638671875 183.6858062744140625 182.938201904296875 181.616180419921875 182.288299560546875 181.98974609375 182.5545196533203125 182.46588134765625 186.105133056640625 188.2415008544921875 189.1986541748046875 188.8903961181640625 188.28021240234375 188.55584716796875 188.9072265625 189.0198211669921875 188.231292724609375 186.3074951171875 186.35919189453125 183.3205718994140625 181.913970947265625 179.3018798828125 167.463226318359375 169.157318115234375 175.2352752685546875 178.8185272216796875 179.1395416259765625 178.2069244384765625 180.004119873046875 182.9433441162109375 186.9542236328125 191.011871337890625 196.7172393798828125 198.71380615234375 199.243621826171875 200.6395263671875 205.9153594970703125 206.9266815185546875 206.5969085693359375 202.39434814453125 208.214263916015625 216.3247833251953125 213.7216033935546875 217.346832275390625 217.6154632568359375 225.2605133056640625 231.639556884765625 240.4019775390625 248.6331787109375 256.01068115234375 261.70880126953125 265.088958740234375 269.49072265625 273.73895263671875 276.438812255859375 278.646240234375 280.408447265625 280.284942626953125 279.03851318359375 277.5672607421875 278.8226318359375 278.957305908203125 279.44287109375 280.6226806640625 287.30194091796875 295.93548583984375 306.323944091796875 313.963958740234375 318.7978515625 323.069305419921875 325.0968017578125 326.8980712890625 -9999 -9999 -9999 -9999 -9999 -9999 -9999 -9999 -9999 -9999 -9999 -9999 -9999 -9999
191.1408233642578125 190.6785736083984375 190.230377197265625 189.7541961669921875 188.3988494873046875 187.6966400146484375 187.9343109130859375 187.9189605712890625 184.70916748046875 183.617950439453125 188.406524658203125 189.39752197265625 189.7794036865234375 189.903564453125 191.2076873779296875 192.65692138671875 190.565887451171875 190.0444793701171875 189.4931488037109375 190.5845489501953125 188.0409698486328125 187.474578857421875 191.210479736328125 191.714813232421875 191.997344970703125 193.332763671875 195.78497314453125 197.2516937255859375 199.138275146484375 202.36346435546875 205.812286376953125 209.072540283203125 211.0467987060546875 212.9577484130859375 214.743682861328125 215.5581817626953125 216.109588623046875 215.8508148193359375 219.0108642578125 222.8253631591796875 226.812591552734375 230.1711578369140625 229.6442718505859375 227.4970550537109375 227.630950927734375 227.298980712890625 224.8429107666015625 225.28436279296875 225.6560821533203125 225.645172119140625 225.31591796875 224.310211181640625 225.674652099609375 226.685699462890625 226.9684600830078125 227.199188232421875 228.2003326416015625 229.6002655029296875 229.815704345703125 228.9615936279296875 228.992401123046875 227.97259521484375 226.9471893310546875 226.2183074951171875 225.4261474609375 224.519378662109375 222.3852081298828125 221.272216796875 220.9690093994140625 220.1384429931640625 216.7763519287109375 216.9041900634765625 218.26806640625 218.8974456787109375 218.4861297607421875 218.2735748291015625 217.2345123291015625 216.707244873046875 215.8447723388671875 214.9582061767578125 212.090789794921875 208.3869781494140625 204.4183502197265625 202.474395751953125 200.8951263427734375 198.6828765869140625 195.7525787353515625 195.0995025634765625 195.4821319580078125 198.1373443603515625 200.15216064453125 201.170867919921875 199.0062713623046875 200.4915771484375 201.2030487060546875 201.796875 204.965667724609375 209.13720703125 212.4084930419921875 213.0715789794921875 212.2645721435546875 209.3364715576171875 206.8227386474609375 205.222930908203125 204.5046539306640625 203.4398956298828125 203.1185302734375 202.8397674560546875 200.3673553466796875 196.2860260009765625 194.183441162109375 190.8708648681640625 191.352783203125 190.624969482421875 187.9812774658203125 188.82623291015625 190.792266845703125 189.5076751708984375 187.7114105224609375 187.0379791259765625 189.6559906005859375 189.6206207275390625 189.0421295166015625 187.0205078125 187.6499786376953125 187.812225341796875 187.4361572265625 184.913787841796875 183.1423492431640625 182.13629150390625 182.103485107421875 181.4495697021484375 180.5065460205078125 180.525238037109375 181.295654296875 179.9446868896484375 182.6400909423828125 185.555328369140625 187.5422210693359375 188.7548675537109375 188.81341552734375 188.373260498046875 188.2801666259765625 188.2700958251953125 188.046478271484375 187.4481353759765625 185.29888916015625 184.1900177001953125 182.4925079345703125 179.814422607421875 175.354248046875 163.5072021484375 165.1125640869140625 167.6926727294921875 172.9541473388671875 174.7330322265625 174.340240478515625 177.965576171875 182.876708984375 185.00592041015625 187.934539794921875 192.6998291015625 194.3231964111328125 195.623687744140625 197.90252685546875 201.623016357421875 204.11224365234375 202.96307373046875 202.3943023681640625 203.6300811767578125 209.0886077880859375 207.5252838134765625 208.8491668701171875 214.84490966796875 223.496673583984375 230.76251220703125 239.5615692138671875 248.462799072265625 255.942108154296875 261.939544677734375 264.97772216796875 268.39361572265625 272.57000732421875 277.26922607421875 279.9600830078125 280.229644775390625 279.77947998046875 278.85858154296875 277.56732177734375 277.57537841796875 277.81768798828125 279.541961669921875 281.08612060546875 290.425750732421875 300.814361572265625 307.715087890625 313.366302490234375 320.2877197265625 323.6763916015625 325.013458251953125 -9999 -9999 -9999 -9999 -9999 -9999 -9999 -9999 -9999 -9999 -9999 -9999 -9999 -9999 -9999
191.8184051513671875 191.102325439453125 190.529998779296875 190.0142822265625 189.73297119140625 189.0474090576171875 188.5881195068359375 188.594940185546875 187.9617919921875 183.5405731201171875 185.27874755859375 188.088592529296875 189.1235809326171875 189.536407470703125 189.6862945556640625 189.700836181640625 189.7041168212890625 189.565582275390625 187.1048431396484375 185.5828857421875 186.99932861328125 190.140716552734375 190.408660888671875 190.80206298828125 191.0084381103515625 191.58453369140625 192.8382568359375 194.0671539306640625 195.632843017578125 198.8474884033203125 203.4076385498046875 206.4793853759765625 208.8480377197265625 209.7763214111328125 212.2417144775390625 213.308441162109375 213.5372161865234375 212.9838104248046875 214.886199951171875 216.757965087890625 218.9238128662109375 220.3826904296875 221.5646514892578125 221.8941650390625 221.2655792236328125 221.6570587158203125 222.0410308837890625 220.9333648681640625 222.0487823486328125 222.9875030517578125 223.545989990234375 222.858306884765625 222.7787017822265625 224.2745208740234375 223.7751617431640625 225.169647216796875 225.6389007568359375 225.8910980224609375 226.1298065185546875 225.7083282470703125 225.384368896484375 224.9144287109375 223.7602691650390625 222.9189300537109375 222.1951751708984375 222.39080810546875 221.3662109375 220.0071258544921875 219.5461883544921875 218.92169189453125 217.9647216796875 215.030242919921875 216.203338623046875 216.725921630859375 216.817474365234375 216.6603240966796875 215.9914093017578125 215.716217041015625 215.8829345703125 215.3644256591796875 213.79266357421875 210.343994140625 205.9894561767578125 203.1730804443359375 201.080535888671875 199.7645416259765625 198.172637939453125 194.0552825927734375 194.2955169677734375 195.9039154052734375 197.8910064697265625 196.71405029296875 197.601104736328125 199.8807525634765625 200.6322479248046875 200.9098358154296875 202.8904876708984375 206.2755889892578125 208.1925201416015625 210.75482177734375 210.6918487548828125 209.249908447265625 207.1683807373046875 203.745391845703125 202.2171173095703125 201.8859710693359375 202.1757049560546875 202.4677734375 201.522674560546875 197.75909423828125 194.4503173828125 191.0022125244140625 189.3162994384765625 188.1207427978515625 187.30615234375 186.7354736328125 188.9298248291015625 188.3924407958984375 186.6194305419921875 184.84698486328125 186.3374176025390625 187.0888519287109375 187.1739654541015625 185.5837554931640625 186.3726654052734375 185.95538330078125 185.411590576171875 184.6318206787109375 182.2748870849609375 181.395263671875 180.4499053955078125 180.7763519287109375 179.6367645263671875 179.4581298828125 179.94464111328125 181.0473785400390625 182.1609344482421875 183.423370361328125 185.160400390625 186.4948883056640625 186.7937469482421875 186.9952392578125 187.76666259765625 187.26324462890625 187.0547332763671875 185.790191650390625 183.20794677734375 181.838043212890625 181.1911773681640625 179.1363525390625 174.5650177001953125 166.5215301513671875 161.058807373046875 165.8556365966796875 166.251983642578125 167.8975830078125 170.1638641357421875 175.01788330078125 178.3199920654296875 181.7299041748046875 185.2848968505859375 189.2639617919921875 192.5525360107421875 193.3978729248046875 195.17279052734375 197.5178070068359375 199.6431884765625 201.07403564453125 200.906890869140625 202.323699951171875 203.557861328125 202.3905487060546875 205.70587158203125 214.274444580078125 222.9616241455078125 230.8272857666015625 239.516326904296875 248.6316986083984375 256.1016845703125 261.879608154296875 265.100860595703125 268.763946533203125 272.894287109375 277.71600341796875 280.063568115234375 279.95880126953125 279.353271484375 278.433349609375 277.5673828125 278.60723876953125 279.37603759765625 279.31005859375 282.296966552734375 291.6546630859375 300.998443603515625 305.44866943359375 310.924530029296875 317.1817626953125 321.34405517578125 323.195892333984375 -9999 -9999 -9999 -9999 -9999 -9999 -9999 -9999 -9999 -9999 -9999 -9999 -9999 -9999 -9999
192.084136962890625 191.3071136474609375 190.6240234375 190.0804901123046875 189.8429107666015625 189.7037811279296875 189.414886474609375 189.165771484375 189.010650634765625 187.1551513671875 183.5274200439453125 183.527374267578125 186.026123046875 185.7909088134765625 186.451904296875 187.347412109375 188.77044677734375 188.814453125 186.90521240234375 182.54949951171875 188.33984375 189.647003173828125 189.49462890625 189.55743408203125 189.679718017578125 190.0610504150390625 190.90435791015625 190.207794189453125 188.3402252197265625 197.1585693359375 201.052825927734375 205.1182708740234375 207.7051239013671875 207.4760589599609375 208.050384521484375 208.3086700439453125 208.3319549560546875 207.6905670166015625 209.46990966796875 210.551849365234375 210.9350128173828125 211.95831298828125 212.60577392578125 213.42071533203125 214.948455810546875 215.2391204833984375 214.7710418701171875 216.10638427734375 218.23065185546875 219.4879913330078125 221.4141387939453125 222.5624542236328125 221.913238525390625 223.205780029296875 222.0821075439453125 221.06463623046875 221.7866058349609375 222.234405517578125 222.69317626953125 222.450897216796875 221.83636474609375 221.157867431640625 220.5558013916015625 219.608062744140625 219.0096588134765625 219.368682861328125 219.864288330078125 218.173492431640625 217.2559814453125 216.7592010498046875 216.22930908203125 214.3011627197265625 213.7300262451171875 215.1637115478515625 215.07501220703125 215.200897216796875 215.2094573974609375 214.938873291015625 215.078643798828125 215.616668701171875 215.593841552734375 211.75958251953125 206.9212646484375 203.5718841552734375 201.284332275390625 199.3375091552734375 197.617401123046875 193.7765655517578125 193.12420654296875 194.4421539306640625 195.2154541015625 196.6491546630859375 198.8119049072265625 199.2807464599609375 199.8620147705078125 200.020538330078125 201.053680419921875 203.0177154541015625 204.6631927490234375 206.035919189453125 206.57635498046875 206.4950714111328125 205.5756378173828125 202.63641357421875 199.849090576171875 199.2012176513671875 201.0172576904296875 201.1231689453125 200.2240753173828125 198.6053619384765625 195.6942901611328125 193.2399444580078125 190.478973388671875 187.19927978515625 185.2655487060546875 185.4997406005859375 186.8217620849609375 186.242706298828125 186.130828857421875 184.1418609619140625 184.2276611328125 185.2238922119140625 185.3824615478515625 184.4033966064453125 185.1703033447265625 184.7246551513671875 184.3296661376953125 183.510162353515625 182.1921234130859375 181.6093292236328125 179.986785888671875 179.6368255615234375 179.67572021484375 179.4581298828125 179.4580841064453125 179.4580230712890625 179.0985260009765625 179.682037353515625 182.1510772705078125 183.1315155029296875 184.706756591796875 184.953948974609375 186.4698638916015625 186.106719970703125 185.8408660888671875 185.2764129638671875 181.5324554443359375 179.1530914306640625 179.4436798095703125 178.8503265380859375 176.2783203125 166.854827880859375 159.1842041015625 163.0893402099609375 162.4854736328125 164.1345977783203125 171.4280853271484375 176.882232666015625 177.75689697265625 179.875213623046875 182.638275146484375 187.868743896484375 191.4693450927734375 191.8826446533203125 193.3145751953125 194.5522308349609375 195.37841796875 196.781402587890625 200.171539306640625 200.52447509765625 200.683990478515625 199.4953765869140625 205.983551025390625 214.416717529296875 223.67510986328125 231.3320770263671875 239.8175048828125 248.2720794677734375 255.9683685302734375 261.667266845703125 265.664794921875 269.340423583984375 272.89508056640625 276.22265625 279.050201416015625 279.59869384765625 279.020751953125 278.44976806640625 278.497100830078125 279.573638916015625 281.247802734375 281.724334716796875 284.220733642578125 292.95623779296875 298.1427001953125 302.06854248046875 307.9224853515625 312.36822509765625 318.063232421875 321.410797119140625 -9999 -9999 -9999 -9999 -9999 -9999 -9999 -9999 -9999 -9999 -9999 -9999 -9999 -9999 -9999
191.92559814453125 191.0264892578125 190.7233428955078125 190.057525634765625 189.8111724853515625 189.7340087890625 189.5638580322265625 189.498321533203125 189.4072265625 189.3346405029296875 187.7167510986328125 184.834564208984375 183.527313232421875 182.888763427734375 182.66009521484375 182.4820556640625 182.48199462890625 182.4819488525390625 184.9417572021484375 181.426666259765625 187.18377685546875 188.9069671630859375 189.0944671630859375 189.25213623046875 189.35546875 189.2124786376953125 189.0684356689453125 188.340179443359375 191.989532470703125 194.526123046875 197.379180908203125 200.05108642578125 201.5777740478515625 203.7370147705078125 205.01953125 204.3966217041015625 204.0145111083984375 203.32281494140625 203.19683837890625 204.831329345703125 205.881866455078125 206.0171966552734375 206.516845703125 209.9886627197265625 212.2487030029296875 211.46844482421875 213.068511962890625 214.3012237548828125 214.232879638671875 215.250885009765625 218.218902587890625 220.21044921875 222.2821807861328125 222.0121307373046875 220.7339019775390625 217.3650054931640625 218.208251953125 219.0410003662109375 220.4182281494140625 219.8896026611328125 218.35858154296875 217.1038970947265625 217.1302947998046875 216.844146728515625 216.904388427734375 216.5391082763671875 216.2424163818359375 215.7577667236328125 214.4454498291015625 214.139801025390625 213.7272186279296875 213.3702850341796875 212.100341796875 214.2684478759765625 214.58721923828125 214.4521484375 214.67498779296875 214.157470703125 213.5283966064453125 213.5417327880859375 214.291229248046875 212.265777587890625 207.8821258544921875 204.2080230712890625 202.158782958984375 200.01531982421875 198.5658416748046875 195.34442138671875 192.0684051513671875 192.3751678466796875 193.372039794921875 195.5616912841796875 197.3450775146484375 198.9196929931640625 199.147552490234375 198.947418212890625 198.992950439453125 199.900726318359375 201.190673828125 202.02618408203125 203.2783660888671875 204.14276123046875 204.0072174072265625 201.0786285400390625 196.2269287109375 195.5872955322265625 198.6828765869140625 199.030181884765625 199.1647796630859375 198.6025848388671875 196.586212158203125 194.5751953125 191.7762298583984375 188.7482452392578125 186.076751708984375 184.3316650390625 184.047515869140625 183.5318756103515625 183.5357666015625 183.2533721923828125 183.1162109375 182.934326171875 182.6834259033203125 183.066192626953125 182.9678955078125 183.674591064453125 183.2971649169921875 182.4735107421875 181.440887451171875 181.077789306640625 179.9633941650390625 179.636871337890625 180.1463470458984375 182.190216064453125 185.2457122802734375 186.2825164794921875 182.4483184814453125 178.98309326171875 178.755218505859375 179.9699859619140625 182.2103424072265625 184.5435791015625 186.201690673828125 185.2178802490234375 184.005889892578125 182.870330810546875 180.630615234375 178.406707763671875 175.37091064453125 174.5343170166015625 175.509124755859375 167.13421630859375 158.784698486328125 158.2016448974609375 160.11846923828125 168.02447509765625 175.4613494873046875 176.18121337890625 177.035125732421875 178.5094757080078125 181.1056671142578125 185.6287078857421875 188.433349609375 190.266326904296875 192.056549072265625 192.99993896484375 190.847747802734375 194.2814178466796875 198.0627593994140625 197.9042205810546875 196.2779998779296875 199.873779296875 204.313812255859375 214.7747650146484375 223.9820404052734375 231.6851959228515625 239.62664794921875 247.7904815673828125 255.804718017578125 261.425689697265625 266.36944580078125 270.4671630859375 273.379150390625 276.886810302734375 279.3212890625 279.617523193359375 279.490692138671875 279.3868408203125 280.363616943359375 282.277801513671875 283.374847412109375 285.9727783203125 285.959991455078125 291.06658935546875 295.338470458984375 300.336151123046875 303.87811279296875 308.013885498046875 312.982269287109375 317.966033935546875 -9999 -9999 -9999 -9999 -9999 -9999 -9999 -9999 -9999 -9999 -9999 -9999 -9999 -9999 -9999
190.9549713134765625 190.2082366943359375 189.953704833984375 189.7669677734375 189.6769866943359375 189.694000244140625 189.5303497314453125 189.480987548828125 189.4159698486328125 189.4421234130859375 189.4284820556640625 189.1590728759765625 189.0323944091796875 188.793914794921875 188.7437286376953125 188.5464324951171875 186.2057037353515625 184.3463897705078125 182.0435638427734375 181.019744873046875 183.11016845703125 185.7120513916015625 187.031341552734375 188.366851806640625 188.4715423583984375 188.9898223876953125 185.59100341796875 189.002349853515625 190.631591796875 192.07135009765625 195.2341156005859375 197.3860015869140625 197.896453857421875 199.5770416259765625 202.4059906005859375 201.1045074462890625 200.78643798828125 200.855712890625 198.989166259765625 200.3323974609375 201.333526611328125 202.8122711181640625 203.48016357421875 207.249114990234375 208.1936492919921875 208.0179443359375 210.394866943359375 210.7887725830078125 211.3805389404296875 209.33349609375 211.661773681640625 215.02667236328125 216.700958251953125 216.6341552734375 214.752838134765625 212.984771728515625 214.1152191162109375 215.26837158203125 216.8891143798828125 216.4735565185546875 215.0207366943359375 213.7532958984375 213.3954010009765625 213.2448577880859375 213.4878387451171875 212.95867919921875 212.5334014892578125 212.913726806640625 212.0742034912109375 210.0861968994140625 211.114501953125 210.8450469970703125 209.640350341796875 211.9991302490234375 213.735321044921875 213.732574462890625 214.020111083984375 213.350341796875 212.1147308349609375 211.4410552978515625 211.374755859375 210.847869873046875 208.223236083984375 205.397186279296875 203.5950775146484375 201.0116424560546875 198.787322998046875 196.616424560546875 194.093597412109375 190.93572998046875 191.1132049560546875 193.7557525634765625 196.6834869384765625 198.6256561279296875 198.8091583251953125 198.111968994140625 197.8455047607421875 197.88970947265625 198.3155517578125 199.2971343994140625 200.7218475341796875 202.1260833740234375 202.24407958984375 200.2309112548828125 194.450958251953125 191.560638427734375 194.8751220703125 196.0558929443359375 196.278350830078125 197.0468597412109375 196.3151702880859375 194.8273162841796875 192.1507415771484375 188.7949066162109375 185.92987060546875 185.0226287841796875 184.95526123046875 184.5157012939453125 184.1257476806640625 183.85113525390625 183.7069091796875 183.444580078125 183.067840576171875 181.876861572265625 181.9093170166015625 182.722381591796875 182.409423828125 181.8513031005859375 181.4026031494140625 181.2064361572265625 179.7769012451171875 181.437774658203125 183.986572265625 186.716583251953125 190.688140869140625 193.3834075927734375 188.7418670654296875 183.7550506591796875 180.93115234375 178.48907470703125 178.8265533447265625 183.027435302734375 187.0416259765625 185.099395751953125 183.471466064453125 181.5765533447265625 180.600372314453125 179.3619537353515625 176.941436767578125 172.9011077880859375 170.85028076171875 173.9518585205078125 165.034454345703125 156.97686767578125 160.4383087158203125 170.3606414794921875 174.7630615234375 175.0575408935546875 175.801971435546875 177.453338623046875 179.23858642578125 182.9232940673828125 187.9242706298828125 189.53839111328125 190.01995849609375 191.1923828125 189.1194000244140625 192.5172119140625 194.55035400390625 193.2354736328125 195.0667572021484375 198.872161865234375 210.385101318359375 218.4841461181640625 224.2679290771484375 231.024383544921875 239.51708984375 247.3519439697265625 254.900360107421875 261.035064697265625 266.26861572265625 270.570648193359375 273.6544189453125 277.36224365234375 279.21319580078125 281.843780517578125 282.753753662109375 286.58941650390625 290.427276611328125 291.56268310546875 289.89239501953125 290.29486083984375 289.6048583984375 291.077301025390625 295.000518798828125 299.3389892578125 302.99542236328125 306.082794189453125 308.4124755859375 312.855224609375 -9999 -9999 -9999 -9999 -9999 -9999 -9999 -9999 -9999 -9999 -9999 -9999 -9999 -9999 -9999
189.9371337890625 189.7727813720703125 189.71185302734375 189.643707275390625 189.601318359375 189.635467529296875 189.481536865234375 189.4185028076171875 189.402191162109375 189.4000701904296875 189.517852783203125 189.303497314453125 189.2992095947265625 189.297210693359375 189.3052825927734375 189.3195953369140625 189.2079315185546875 189.05059814453125 188.479583740234375 183.4174041748046875 180.8370819091796875 180.8370361328125 182.315032958984375 185.9564971923828125 185.62921142578125 186.2243499755859375 185.5287017822265625 189.2420501708984375 189.383636474609375 190.57855224609375 192.4969940185546875 193.340850830078125 194.94915771484375 197.24078369140625 197.6124420166015625 198.0667877197265625 198.80889892578125 198.1978912353515625 195.512847900390625 197.676849365234375 198.4867095947265625 200.30902099609375 201.2824859619140625 203.8073272705078125 204.84454345703125 204.67645263671875 206.6607513427734375 207.1523895263671875 207.9221038818359375 205.941925048828125 207.0068817138671875 207.0436553955078125 206.6609649658203125 208.0432891845703125 208.1995849609375 284.572479248046875 209.74090576171875 210.92132568359375 211.958892822265625 212.0781707763671875 211.385101318359375 210.541656494140625 208.9327239990234375 208.5383758544921875 208.7911376953125 208.695648193359375 208.4022979736328125 209.2568817138671875 209.736358642578125 207.3480682373046875 208.1262969970703125 208.3319091796875 207.46539306640625 209.1858062744140625 210.695404052734375 211.543060302734375 211.9995880126953125 211.9167022705078125 210.891510009765625 209.711700439453125 208.993011474609375 208.6678009033203125 207.4823150634765625 205.9924163818359375 204.1871185302734375 202.229766845703125 200.321075439453125 198.390655517578125 196.2015838623046875 192.535186767578125 190.0475616455078125 192.1253662109375 195.049896240234375 197.5793609619140625 197.8416900634765625 197.134124755859375 196.7301483154296875 196.7296142578125 196.85357666015625 198.0322265625 199.61395263671875 201.0408172607421875 200.7319183349609375 199.81622314453125 197.2950439453125 192.6236114501953125 190.730438232421875 192.5634765625 192.5446929931640625 193.9936981201171875 193.893096923828125 193.660736083984375 191.936370849609375 189.4800262451171875 186.93585205078125 185.02764892578125 184.4802093505859375 184.3115997314453125 184.1557159423828125 183.8642730712890625 183.4644622802734375 183.0282440185546875 182.71099853515625 181.428131103515625 181.1803436279296875 182.1274566650390625 182.1274566650390625 181.8264923095703125 181.332550048828125 180.1800994873046875 179.776947021484375 182.8571319580078125 188.053192138671875 192.080169677734375 194.7858734130859375 197.254241943359375 193.904510498046875 188.45025634765625 185.589874267578125 181.43341064453125 178.384735107421875 178.6703033447265625 185.2062835693359375 184.5629425048828125 182.7719268798828125 180.4376678466796875 176.5702667236328125 177.12103271484375 176.6309814453125 174.9665985107421875 168.7929840087890625 171.6640777587890625 164.3096923828125 156.7186279296875 158.8355712890625 167.2913970947265625 173.8790435791015625 173.4603271484375 174.40447998046875 176.08349609375 176.8121795654296875 181.205810546875 186.584716796875 188.276214599609375 187.6871337890625 188.9849853515625 186.4882049560546875 190.5294189453125 190.7819061279296875 190.4461517333984375 194.5718231201171875 202.4880218505859375 212.98529052734375 218.72027587890625 229.7657928466796875 237.8869476318359375 240.8583831787109375 247.55938720703125 254.984375 261.91595458984375 266.158111572265625 270.759857177734375 274.375885009765625 277.337158203125 281.484588623046875 287.082977294921875 293.12969970703125 299.656005859375 298.717254638671875 296.69561767578125 298.918121337890625 298.3028564453125 296.234466552734375 293.448272705078125 294.9173583984375 298.711669921875 303.172088623046875 306.135284423828125 307.429779052734375 -9999 -9999 -9999 -9999 -9999 -9999 -9999 -9999 -9999 -9999 -9999 -9999 -9999 -9999 -9999 -9999
189.6278228759765625 189.5477752685546875 189.5902862548828125 189.5494537353515625 189.5352783203125 189.6147003173828125 189.4774169921875 189.375885009765625 189.34918212890625 189.27508544921875 189.49615478515625 189.36383056640625 189.4127349853515625 189.4173736572265625 189.40277099609375 189.3922882080078125 189.3237457275390625 189.2078704833984375 188.9427642822265625 187.9941558837890625 188.1744842529296875 187.2843170166015625 180.83697509765625 180.8369140625 180.83685302734375 182.8990631103515625 186.3186798095703125 189.0391082763671875 189.47784423828125 189.6627044677734375 190.590179443359375 191.678924560546875 192.8598480224609375 194.8506927490234375 195.3636627197265625 195.4736785888671875 197.191802978515625 196.34185791015625 193.593170166015625 195.6604461669921875 196.553924560546875 197.25079345703125 199.5371246337890625 200.7808685302734375 200.731201171875 200.0194549560546875 202.2837371826171875 202.3743438720703125 202.7411346435546875 194.37725830078125 200.295501708984375 200.0013885498046875 200.783416748046875 202.0994873046875 203.405914306640625 203.9453582763671875 204.1464080810546875 205.5574951171875 206.7220458984375 207.2670135498046875 207.0942840576171875 206.6289520263671875 205.0234375 204.256439208984375 203.8399200439453125 203.8961181640625 204.5763397216796875 205.2555694580078125 206.3470458984375 205.00909423828125 205.2065887451171875 204.690521240234375 205.5302886962890625 206.664764404296875 207.5061798095703125 208.930267333984375 209.2976226806640625 209.64202880859375 209.0476531982421875 207.93670654296875 207.0594024658203125 206.92169189453125 206.6707763671875 206.031524658203125 204.6255340576171875 203.534942626953125 201.9882049560546875 200.452667236328125 197.8309326171875 194.830780029296875 189.7469482421875 189.47607421875 192.7900390625 195.48480224609375 196.157501220703125 194.8900604248046875 194.2428741455078125 195.17694091796875 195.7788238525390625 196.4902191162109375 197.9289398193359375 198.8716888427734375 199.1516876220703125 198.36700439453125 197.4914093017578125 195.6160888671875 190.450531005859375 188.4860992431640625 189.3329620361328125 191.12750244140625 189.2286224365234375 188.893341064453125 188.7608489990234375 187.058258056640625 186.3548583984375 185.226165771484375 184.277587890625 184.11175537109375 183.9790496826171875 183.7340087890625 183.462005615234375 183.2416839599609375 182.93115234375 181.724761962890625 181.1457672119140625 182.254913330078125 181.836761474609375 180.5907440185546875 180.3835906982421875 180.701416015625 182.4730987548828125 185.4450225830078125 190.8821258544921875 196.591461181640625 200.1021728515625 200.1014862060546875 198.738372802734375 192.7451324462890625 188.2628173828125 185.7405242919921875 183.0302734375 178.241424560546875 177.10400390625 180.539886474609375 180.185882568359375 178.3966522216796875 175.1125640869140625 169.5903167724609375 168.9574432373046875 173.5507659912109375 172.7039947509765625 166.3298797607421875 162.0944671630859375 154.4464263916015625 157.8179779052734375 166.389984130859375 173.3433990478515625 171.772918701171875 173.42840576171875 172.329925537109375 173.3973846435546875 176.9085693359375 183.198822021484375 184.3143310546875 184.4297027587890625 188.01348876953125 186.4882049560546875 186.0859527587890625 188.099609375 189.86395263671875 193.402435302734375 200.330078125 209.0099945068359375 216.7613372802734375 234.6065826416015625 241.33111572265625 243.16815185546875 250.2870025634765625 257.64801025390625 261.698211669921875 266.526885986328125 271.301605224609375 273.824371337890625 277.510589599609375 284.150360107421875 294.114990234375 303.451690673828125 304.64251708984375 302.000518798828125 306.42474365234375 306.228729248046875 304.196685791015625 302.358673095703125 299.64788818359375 298.589141845703125 300.515472412109375 302.869171142578125 304.91748046875 -9999 -9999 -9999 -9999 -9999 -9999 -9999 -9999 -9999 -9999 -9999 -9999 -9999 -9999 -9999 -9999 -9999
189.4673919677734375 189.4354705810546875 189.4389801025390625 189.43988037109375 189.4616241455078125 189.4871673583984375 189.4398193359375 189.272613525390625 189.287750244140625 189.260467529296875 189.4136199951171875 189.3789215087890625 189.400787353515625 189.397247314453125 189.4096527099609375 189.3558807373046875 189.3328094482421875 189.28375244140625 189.179656982421875 189.16473388671875 188.9378204345703125 188.8075408935546875 188.393402099609375 187.0517425537109375 181.5445404052734375 180.3570404052734375 186.4397125244140625 188.32696533203125 189.203399658203125 189.4923858642578125 187.0061187744140625 190.3357086181640625 191.8462677001953125 192.276611328125 192.6430511474609375 191.6873779296875 193.951904296875 194.6374664306640625 192.466705322265625 193.851104736328125 194.280487060546875 194.27545166015625 194.995452880859375 194.442108154296875 194.2024688720703125 195.9365234375 198.437469482421875 197.8945159912109375 196.6904754638671875 194.3772125244140625 195.709320068359375 196.6743011474609375 199.5726318359375 198.9861297607421875 197.8817291259765625 198.064117431640625 198.2711334228515625 198.86395263671875 199.0446014404296875 200.671844482421875 201.5417022705078125 202.0409393310546875 201.4770355224609375 200.8418731689453125 200.4201507568359375 200.2550201416015625 200.51385498046875 200.7008056640625 201.9385986328125 203.0801849365234375 201.78118896484375 202.613433837890625 204.5022125244140625 204.7517547607421875 204.65557861328125 205.8303985595703125 206.655975341796875 207.189666748046875 206.7916412353515625 205.9067535400390625 205.8833160400390625 205.9808197021484375 206.3166656494140625 206.3646392822265625 205.2047271728515625 203.616455078125 202.2067108154296875 201.223419189453125 199.1807098388671875 196.681854248046875 192.7670135498046875 188.735626220703125 190.60589599609375 193.2986297607421875 194.4016265869140625 193.400909423828125 191.43756103515625 192.8370819091796875 194.3052825927734375 194.756134033203125 195.5435791015625 196.481597900390625 196.8104705810546875 196.5891571044921875 195.6844482421875 194.6172943115234375 191.699371337890625 187.762725830078125 186.7813873291015625 188.4033203125 187.7575225830078125 186.2122039794921875 184.3612060546875 184.072418212890625 183.8728179931640625 183.554290771484375 183.26068115234375 184.0403594970703125 183.7655181884765625 183.5942535400390625 183.5114593505859375 182.2168426513671875 181.724761962890625 181.5938568115234375 181.1457672119140625 181.062347412109375 180.825469970703125 180.6361236572265625 181.782440185546875 182.58905029296875 180.7014617919921875 187.703155517578125 192.775970458984375 200.36181640625 207.66259765625 207.21868896484375 207.0963592529296875 199.19610595703125 190.238250732421875 186.93695068359375 184.224578857421875 179.837310791015625 175.7217559814453125 175.5964202880859375 175.59637451171875 174.5325927734375 173.1194915771484375 171.0590667724609375 165.6287078857421875 166.2869415283203125 171.572174072265625 164.3547210693359375 167.027587890625 158.2923126220703125 153.296661376953125 161.9892425537109375 171.7308502197265625 170.833953857421875 169.2132720947265625 170.3880767822265625 173.6475830078125 173.6535491943359375 177.451934814453125 180.8918914794921875 183.80218505859375 184.8118896484375 182.7723541259765625 182.77239990234375 189.8457183837890625 191.3913421630859375 192.4182891845703125 198.265777587890625 206.0164031982421875 215.6421051025390625 231.18731689453125 240.3146209716796875 246.8454742431640625 256.690643310546875 259.210235595703125 262.24530029296875 266.341949462890625 270.9532470703125 275.523773193359375 279.25384521484375 285.097503662109375 296.638671875 304.565643310546875 305.849273681640625 305.907379150390625 310.46087646484375 308.892242431640625 309.575927734375 306.599639892578125 307.5556640625 303.818359375 302.80914306640625 303.103668212890625 -9999 -9999 -9999 -9999 -9999 -9999 -9999 -9999 -9999 -9999 -9999 -9999 -9999 -9999 -9999 -9999 -9999 -9999
189.2814178466796875 189.2970123291015625 189.19927978515625 189.284149169921875 189.315887451171875 189.326507568359375 189.2809600830078125 189.2141876220703125 189.2604217529296875 189.319793701171875 189.3713226318359375 189.3529052734375 189.3499755859375 189.3336944580078125 189.337646484375 189.3719635009765625 189.3546600341796875 189.3065948486328125 189.270172119140625 189.250823974609375 189.2147064208984375 189.1213836669921875 188.9711151123046875 188.810943603515625 185.5406341552734375 180.3569793701171875 188.451568603515625 188.9925384521484375 189.1766357421875 186.9077606201171875 186.2681427001953125 189.7992401123046875 191.0262603759765625 191.537261962890625 190.0260009765625 188.23992919921875 192.321624755859375 193.6296539306640625 192.089111328125 192.4130859375 192.49603271484375 192.141632080078125 191.824951171875 190.518768310546875 193.0981292724609375 193.2403411865234375 193.6623687744140625 193.15496826171875 191.8698272705078125 189.1919708251953125 192.018096923828125 192.477294921875 194.9315948486328125 196.0186614990234375 195.753509521484375 193.26239013671875 193.2446441650390625 192.55828857421875 192.5799713134765625 194.80633544921875 196.0189666748046875 197.65948486328125 198.0618133544921875 197.6453704833984375 197.3766021728515625 197.26605224609375 197.052154541015625 196.358245849609375 196.8072662353515625 198.60968017578125 198.8140869140625 199.3552703857421875 202.2584075927734375 203.041473388671875 201.3743438720703125 202.817413330078125 204.0594635009765625 204.4501800537109375 204.4508209228515625 204.07342529296875 204.2349395751953125 204.74334716796875 205.18572998046875 205.1478729248046875 204.119903564453125 202.6383209228515625 202.3819427490234375 201.4388580322265625 199.0923004150390625 197.2425079345703125 194.9270477294921875 188.98504638671875 188.7355804443359375 190.346160888671875 192.4566192626953125 191.7696380615234375 190.0252685546875 190.79248046875 192.396392822265625 192.9801788330078125 193.7411041259765625 194.3150482177734375 194.3512115478515625 194.04522705078125 193.3329315185546875 191.8507232666015625 189.00738525390625 187.3310546875 185.720489501953125 185.459259033203125 185.1515045166015625 184.3921966552734375 185.25048828125 185.2283782958984375 185.109588623046875 184.9251556396484375 183.7352752685546875 183.2116851806640625 183.5992584228515625 182.290985107421875 182.2168426513671875 182.1274566650390625 182.7841339111328125 182.3873291015625 181.194793701171875 180.935394287109375 181.962921142578125 181.865753173828125 182.0531768798828125 183.1215972900390625 183.540435791015625 188.209014892578125 193.038238525390625 200.0042572021484375 211.8406982421875 216.711944580078125 214.751800537109375 204.02252197265625 196.020294189453125 187.9608154296875 184.1298980712890625 180.8205718994140625 179.5175933837890625 175.8830413818359375 175.63397216796875 179.4640350341796875 179.0034332275390625 173.367767333984375 168.44317626953125 163.2971649169921875 162.281097412109375 159.989654541015625 163.61376953125 162.77996826171875 152.7484130859375 158.7801055908203125 170.2929534912109375 170.399139404296875 163.66888427734375 168.7114105224609375 170.37799072265625 174.2070770263671875 172.8455352783203125 174.105712890625 177.1527099609375 179.91217041015625 183.897613525390625 187.947174072265625 189.993499755859375 188.97540283203125 192.0094146728515625 198.01605224609375 203.761138916015625 214.324371337890625 226.3940277099609375 238.9539947509765625 247.904876708984375 255.868255615234375 258.6876220703125 261.64996337890625 265.76519775390625 271.3214111328125 276.398223876953125 281.005401611328125 287.34893798828125 296.47320556640625 302.749725341796875 306.05816650390625 306.98968505859375 309.73382568359375 314.0477294921875 -9999 311.164947509765625 319.85028076171875 310.546478271484375 304.880706787109375 -9999 -9999 -9999 -9999 -9999 -9999 -9999 -9999 -9999 -9999 -9999 -9999 -9999 -9999 -9999 -9999 -9999 -9999 -9999
189.003814697265625 187.9566802978515625 189.0516815185546875 189.17071533203125 189.1959075927734375 189.27227783203125 189.214141845703125 189.328216552734375 189.3108978271484375 189.3224639892578125 189.34967041015625 189.3192138671875 189.3089141845703125 189.275177001953125 189.2879791259765625 189.3159637451171875 189.3088836669921875 189.3467559814453125 189.336029052734375 189.36907958984375 189.3745574951171875 189.3317413330078125 189.1790924072265625 189.082000732421875 187.88043212890625 180.35693359375 183.6998291015625 189.023895263671875 189.061187744140625 184.703460693359375 183.8480224609375 189.271728515625 188.834930419921875 189.972412109375 188.2398834228515625 191.5205230712890625 191.4365997314453125 191.5452728271484375 189.791229248046875 191.448577880859375 191.5175628662109375 190.0250701904296875 190.8972930908203125 188.7509918212890625 190.9995269775390625 190.765716552734375 190.6703338623046875 190.148284912109375 189.37518310546875 187.871795654296875 191.05609130859375 189.740997314453125 191.102386474609375 190.3751983642578125 190.4827880859375 188.88336181640625 187.01953125 186.987396240234375 186.944854736328125 188.4045562744140625 190.6170501708984375 193.322662353515625 194.3681640625 194.1518096923828125 193.23419189453125 193.414398193359375 193.6412353515625 192.2846832275390625 191.9787445068359375 192.7011260986328125 194.67169189453125 195.7348480224609375 199.31243896484375 200.8439788818359375 199.648712158203125 200.6372528076171875 201.3772735595703125 201.762237548828125 202.178192138671875 201.93701171875 202.1030731201171875 202.7349090576171875 203.1191253662109375 203.143310546875 202.3611602783203125 200.198883056640625 199.08868408203125 199.001434326171875 198.365692138671875 197.4821624755859375 195.92608642578125 191.5010528564453125 186.933441162109375 186.867523193359375 190.026275634765625 189.49560546875 187.8668975830078125 189.7172393798828125 190.1377105712890625 190.990203857421875 192.440643310546875 192.8582611083984375 192.797210693359375 192.15155029296875 191.022064208984375 189.6049652099609375 187.2167816162109375 186.2093658447265625 185.9630279541015625 184.7451019287109375 185.5834503173828125 185.606292724609375 185.4141998291015625 185.011688232421875 184.9701385498046875 184.8017120361328125 184.5476837158203125 183.08099365234375 182.644805908203125 182.5179595947265625 183.3804168701171875 183.335723876953125 183.1878814697265625 182.48260498046875 181.2776031494140625 181.179168701171875 182.109161376953125 182.2613983154296875 182.984588623046875 184.7529296875 185.2236328125 186.0131988525390625 190.881622314453125 195.361480712890625 209.69012451171875 219.1681671142578125 216.4752960205078125 205.2149658203125 199.0955963134765625 190.4955291748046875 186.4328155517578125 184.2207183837890625 183.410491943359375 180.838348388671875 181.8369293212890625 183.3551483154296875 180.7916259765625 176.361114501953125 175.292572021484375 167.8878326416015625 164.03875732421875 161.7502593994140625 157.3335113525390625 160.25628662109375 152.2161407470703125 155.803436279296875 164.448028564453125 170.2709197998046875 162.2745513916015625 165.8964080810546875 172.73876953125 173.480804443359375 169.43280029296875 175.7351531982421875 180.5335235595703125 183.4779052734375 185.806396484375 187.803497314453125 188.245574951171875 185.4373626708984375 195.301300048828125 198.6232452392578125 202.958831787109375 213.4046783447265625 225.919830322265625 236.5043487548828125 244.764678955078125 252.87347412109375 258.3360595703125 261.119049072265625 265.528717041015625 270.877838134765625 276.4208984375 282.5006103515625 290.26776123046875 297.114044189453125 300.998321533203125 305.520294189453125 306.638885498046875 311.180084228515625 -9999 -9999 -9999 -9999 -9999 -9999 -9999 -9999 -9999 -9999 -9999 -9999 -9999 -9999 -9999 -9999 -9999 -9999 -9999 -9999 -9999 -9999 -9999 -9999 -9999
188.7049102783203125 187.66552734375 188.8211822509765625 188.9077606201171875 188.9922637939453125 189.082366943359375 189.067626953125 189.236480712890625 189.24053955078125 189.309173583984375 189.2993316650390625 189.2905731201171875 189.30548095703125 189.27606201171875 189.2553558349609375 189.2538909912109375 189.26763916015625 189.323516845703125 189.3250732421875 189.400543212890625 189.3563690185546875 189.292510986328125 189.201995849609375 189.1936798095703125 189.1766357421875 187.191009521484375 180.35687255859375 180.3568115234375 185.7581939697265625 182.802032470703125 179.88275146484375 186.1567535400390625 182.82281494140625 186.3726043701171875 188.543914794921875 190.403106689453125 190.5945587158203125 190.2429962158203125 188.728546142578125 190.3406524658203125 190.2164459228515625 188.629180908203125 188.8416290283203125 187.229034423828125 189.4153289794921875 189.4373626708984375 189.1684722900390625 188.77032470703125 184.897796630859375 186.4249114990234375 186.481475830078125 187.864654541015625 188.564727783203125 186.012664794921875 185.0921630859375 184.624786376953125 184.373992919921875 183.94305419921875 183.7006378173828125 183.166778564453125 186.0716552734375 188.753692626953125 190.149261474609375 190.586700439453125 188.4987030029296875 188.4246978759765625 189.2163848876953125 188.128692626953125 187.243743896484375 187.21612548828125 187.115753173828125 190.67352294921875 194.092193603515625 197.79852294921875 196.9678497314453125 198.2006378173828125 198.891815185546875 199.1934051513671875 199.4494476318359375 199.7462921142578125 200.0671844482421875 200.5757293701171875 200.92626953125 200.70013427734375 200.2593536376953125 199.190887451171875 198.3388671875 197.4325408935546875 197.118621826171875 196.755615234375 195.9430084228515625 193.109954833984375 188.4794464111328125 185.328155517578125 187.2840576171875 186.6212921142578125 188.0092315673828125 189.0560302734375 189.2046661376953125 189.8603515625 190.570831298828125 190.868499755859375 191.3623809814453125 190.61273193359375 189.021820068359375 187.676544189453125 186.42376708984375 186.055389404296875 184.73779296875 184.75128173828125 185.6900177001953125 185.48480224609375 185.2279205322265625 184.877197265625 184.66619873046875 183.460784912109375 182.835235595703125 182.8351898193359375 182.53717041015625 182.6194305419921875 183.6334991455078125 183.495330810546875 182.115875244140625 181.77984619140625 181.538482666015625 182.493011474609375 181.6308135986328125 183.12640380859375 184.8130950927734375 187.617279052734375 188.6886749267578125 187.4123992919921875 189.0559539794921875 191.8806610107421875 197.1113433837890625 205.74078369140625 210.435028076171875 209.715240478515625 202.93426513671875 195.1969757080078125 189.3639678955078125 186.087890625 184.4976959228515625 183.1528167724609375 184.5762481689453125 185.7087860107421875 183.365692138671875 181.6988067626953125 178.5980682373046875 174.9915618896484375 172.344818115234375 166.702850341796875 159.3762054443359375 154.8568267822265625 151.908538818359375 151.3353118896484375 155.4565277099609375 165.4851226806640625 162.274505615234375 164.7927703857421875 172.3497772216796875 174.239898681640625 169.221588134765625 172.8622589111328125 179.0842132568359375 182.208099365234375 183.351715087890625 184.1482696533203125 183.203277587890625 184.38543701171875 193.1768798828125 197.2835845947265625 197.2835845947265625 210.8214263916015625 222.967315673828125 234.1413421630859375 243.2094573974609375 250.227569580078125 257.781707763671875 261.0958251953125 264.870513916015625 269.741943359375 276.552520751953125 286.636077880859375 298.019805908203125 301.9879150390625 300.91668701171875 304.72161865234375 306.491455078125 310.823577880859375 -9999 -9999 -9999 -9999 -9999 -9999 -9999 -9999 -9999 -9999 -9999 -9999 -9999 -9999 -9999 -9999 -9999 -9999 -9999 -9999 -9999 -9999 -9999 -9999 -9999
186.8176116943359375 186.95672607421875 188.149871826171875 188.315521240234375 188.306365966796875 187.2369232177734375 188.6056060791015625 188.9809417724609375 189.150421142578125 189.2065582275390625 189.144744873046875 189.07684326171875 189.164459228515625 189.176361083984375 189.171112060546875 189.1094818115234375 189.139404296875 189.17864990234375 189.2252960205078125 189.286468505859375 189.291412353515625 189.2285919189453125 189.176544189453125 189.153778076171875 189.111724853515625 189.0164337158203125 185.4567413330078125 182.6423492431640625 178.802520751953125 178.1155242919921875 177.9783477783203125 177.978302001953125 179.2821807861328125 188.5989990234375 189.383056640625 189.44781494140625 189.435302734375 189.4394378662109375 187.5458831787109375 189.1616058349609375 188.9932403564453125 188.7167510986328125 187.096099853515625 186.1000518798828125 187.949981689453125 187.8386077880859375 186.8923797607421875 185.384002685546875 184.8977508544921875 185.74786376953125 186.481475830078125 185.4974822998046875 185.504486083984375 183.468963623046875 182.9591522216796875 183.087554931640625 183.116790771484375 182.8046112060546875 182.6032867431640625 181.6966705322265625 182.1721649169921875 184.78192138671875 186.1846160888671875 186.549346923828125 183.3507537841796875 183.8553466796875 184.42437744140625 184.1719207763671875 183.406158447265625 181.757049560546875 180.6312713623046875 184.989471435546875 187.7265625 192.1225738525390625 194.1708221435546875 196.3678131103515625 196.6368255615234375 196.63720703125 196.8730316162109375 197.3157501220703125 197.9541168212890625 198.46783447265625 198.819549560546875 198.8026275634765625 198.6688385009765625 198.612152099609375 197.8127288818359375 196.8652191162109375 196.2712554931640625 195.647857666015625 195.13079833984375 192.542144775390625 189.253448486328125 186.2765655517578125 184.331329345703125 185.119110107421875 188.3635406494140625 188.4192657470703125 188.520355224609375 189.0454559326171875 189.1126861572265625 189.1934051513671875 189.7375946044921875 188.74566650390625 187.4239349365234375 186.4118194580078125 185.91839599609375 185.8238067626953125 185.7115478515625 184.4361572265625 185.4149322509765625 185.2755126953125 185.0482177734375 183.6281280517578125 183.093475341796875 182.9261322021484375 183.241943359375 183.0361175537109375 182.9293365478515625 182.6460418701171875 182.5238800048828125 182.332763671875 182.410308837890625 183.4764404296875 181.9082794189453125 182.79949951171875 182.0347442626953125 183.8430938720703125 186.1248626708984375 189.217803955078125 190.1395263671875 189.555816650390625 188.9427032470703125 190.8967742919921875 194.072235107421875 199.811553955078125 209.6726531982421875 213.2909393310546875 206.45037841796875 197.441802978515625 193.5052947998046875 189.1715240478515625 185.3856964111328125 184.236083984375 185.3935089111328125 185.8553619384765625 185.9836883544921875 183.206512451171875 178.0474700927734375 172.7808685302734375 168.6927032470703125 164.4351654052734375 158.9488525390625 157.5671234130859375 158.9138336181640625 153.9678955078125 150.5704193115234375 154.35504150390625 156.3729095458984375 161.91778564453125 171.2198944091796875 173.436309814453125 168.148101806640625 173.10516357421875 179.3938140869140625 181.393096923828125 179.405426025390625 179.564117431640625 181.9469146728515625 182.6300811767578125 187.053131103515625 196.6572113037109375 201.767425537109375 210.4602508544921875 221.108917236328125 230.3263092041015625 239.5458526611328125 247.6747894287109375 255.47918701171875 260.220367431640625 263.178436279296875 268.443359375 277.5113525390625 292.099700927734375 302.122802734375 304.994964599609375 302.17120361328125 303.2149658203125 305.915618896484375 308.31671142578125 311.87664794921875 -9999 -9999 -9999 -9999 -9999 -9999 -9999 -9999 -9999 -9999 -9999 -9999 -9999 -9999 -9999 -9999 -9999 -9999 -9999 -9999 -9999 -9999 -9999 -9999
185.3152923583984375 186.203887939453125 186.01861572265625 186.1822052001953125 186.7230072021484375 186.09027099609375 187.2550048828125 187.804595947265625 188.5233612060546875 188.907501220703125 188.951324462890625 188.8725433349609375 189.0011444091796875 189.0205535888671875 188.9746551513671875 187.95916748046875 188.999755859375 189.0088958740234375 189.0615081787109375 189.17431640625 189.2398223876953125 189.2124481201171875 189.201385498046875 189.1411285400390625 189.0706329345703125 188.9903106689453125 188.930694580078125 188.8425445556640625 186.900634765625 186.2025909423828125 186.7836151123046875 182.4986419677734375 177.978240966796875 182.52545166015625 186.5101776123046875 188.1907196044921875 189.0473175048828125 188.9039154052734375 186.900665283203125 188.42193603515625 188.0376739501953125 187.4522552490234375 186.6914825439453125 184.832183837890625 185.459686279296875 184.981903076171875 184.258758544921875 181.9211273193359375 182.7490386962890625 183.9096221923828125 184.3819580078125 182.434295654296875 182.616607666015625 181.916290283203125 181.689208984375 181.7562103271484375 182.0000762939453125 182.189910888671875 180.9804534912109375 180.8755340576171875 180.63067626953125 181.9522552490234375 182.52685546875 182.3499755859375 180.8343353271484375 181.77581787109375 181.695098876953125 181.69854736328125 181.8535003662109375 178.9751434326171875 177.2668914794921875 179.774017333984375 183.654449462890625 186.177154541015625 189.416961669921875 191.5922393798828125 194.056060791015625 194.1946258544921875 194.3525543212890625 195.1041259765625 195.564849853515625 196.103668212890625 196.9364013671875 197.2710113525390625 197.4561920166015625 197.514739990234375 197.1093597412109375 196.3336639404296875 195.6424407958984375 195.2321624755859375 194.4466552734375 191.80450439453125 188.87255859375 186.5007781982421875 183.45306396484375 185.1001434326171875 187.6826629638671875 187.918060302734375 187.986480712890625 188.2388763427734375 188.2754058837890625 188.0276031494140625 187.6903533935546875 186.9957275390625 186.2445220947265625 185.9875030517578125 185.773040771484375 185.547821044921875 185.4486236572265625 184.1881866455078125 184.126190185546875 183.8731842041015625 182.926300048828125 183.1062774658203125 182.9261932373046875 183.30438232421875 183.4829864501953125 184.577117919921875 184.24371337890625 182.8137359619140625 182.608306884765625 183.7293701171875 183.81158447265625 183.7589263916015625 182.451080322265625 182.3013916015625 183.4896087646484375 183.1839752197265625 185.9508819580078125 188.261138916015625 190.211517333984375 191.8212738037109375 190.54754638671875 192.0857086181640625 194.482208251953125 197.2258148193359375 207.04638671875 212.984222412109375 209.1323699951171875 199.520782470703125 195.062591552734375 191.88623046875 187.64471435546875 185.657379150390625 185.7857818603515625 185.5064697265625 185.41925048828125 184.37603759765625 179.9445953369140625 172.7541046142578125 168.7125701904296875 160.60845947265625 155.97222900390625 160.600830078125 169.3874969482421875 166.362396240234375 156.4646148681640625 150.57037353515625 151.39349365234375 159.32220458984375 167.718597412109375 170.873626708984375 165.04766845703125 173.5384368896484375 177.8141326904296875 177.192230224609375 179.6192169189453125 180.697418212890625 182.890594482421875 180.0162353515625 185.4241180419921875 194.7685089111328125 201.101165771484375 208.6366729736328125 218.2778778076171875 226.963409423828125 236.6997528076171875 245.46490478515625 252.925323486328125 258.360565185546875 261.573822021484375 267.8397216796875 278.3917236328125 291.457977294921875 301.19232177734375 304.493988037109375 303.920074462890625 303.996612548828125 304.833648681640625 306.66021728515625 308.982208251953125 -9999 -9999 -9999 -9999 -9999 -9999 -9999 -9999 -9999 -9999 -9999 -9999 -9999 -9999 -9999 -9999 -9999 -9999 -9999 -9999 -9999 -9999 -9999 -9999
185.1105194091796875 184.8088531494140625 184.5914764404296875 184.5914306640625 184.59136962890625 184.59130859375 184.3467559814453125 184.3466949462890625 184.9256439208984375 187.05755615234375 187.829742431640625 188.6444244384765625 188.9085540771484375 188.9250946044921875 188.9055633544921875 187.5889129638671875 188.9129180908203125 188.9656219482421875 189.018890380859375 189.091461181640625 189.155792236328125 189.1901092529296875 189.171051025390625 189.133697509765625 189.01641845703125 188.9670257568359375 188.9579620361328125 188.8072509765625 188.7366485595703125 188.6079864501953125 188.51678466796875 188.1843109130859375 182.2215576171875 177.978179931640625 177.978118896484375 183.8333587646484375 188.3846588134765625 187.8334197998046875 186.253082275390625 185.87908935546875 186.9273223876953125 185.73388671875 184.4940185546875 184.1908416748046875 183.0019073486328125 183.4492034912109375 182.901519775390625 181.92108154296875 182.80877685546875 182.4883270263671875 182.092620849609375 180.458953857421875 181.093963623046875 180.8306884765625 180.61590576171875 180.5450439453125 180.661529541015625 180.7986602783203125 180.945068359375 179.8959503173828125 179.7811737060546875 180.736724853515625 180.9670562744140625 180.8889007568359375 179.548980712890625 179.2747802734375 180.30865478515625 180.37762451171875 180.723968505859375 180.8679046630859375 177.266845703125 178.6309967041015625 183.3135223388671875 183.5641632080078125 184.9149169921875 188.278961181640625 190.315460205078125 190.801422119140625 191.430511474609375 192.9957427978515625 193.76519775390625 194.06768798828125 194.5743255615234375 195.46612548828125 196.045074462890625 196.3386993408203125 196.11968994140625 195.3927459716796875 195.114410400390625 194.6684722900390625 193.9237823486328125 191.5869293212890625 189.33770751953125 188.4834136962890625 186.1641998291015625 182.9085693359375 185.9343719482421875 187.5458831787109375 187.48480224609375 187.4446563720703125 187.4202880859375 186.169647216796875 185.5799713134765625 185.3741455078125 186.0620269775390625 185.779388427734375 185.612457275390625 185.5294189453125 185.310760498046875 184.046051025390625 183.1581573486328125 183.158111572265625 182.926300048828125 182.9262542724609375 183.4678192138671875 184.7871246337890625 183.8176116943359375 185.0239715576171875 185.2928466796875 185.7483367919921875 186.4519805908203125 184.4279327392578125 183.9248809814453125 183.8819732666015625 183.9087982177734375 182.8878021240234375 184.128204345703125 183.5832977294921875 185.515167236328125 187.5364990234375 189.812347412109375 192.0363922119140625 192.8487091064453125 192.6918792724609375 194.2277679443359375 196.1088104248046875 200.960906982421875 207.396270751953125 207.8299407958984375 200.96484375 195.3047332763671875 191.006988525390625 188.8096160888671875 186.70611572265625 185.7913055419921875 185.3660736083984375 185.1554412841796875 183.1581268310546875 173.589813232421875 171.53192138671875 170.2020721435546875 161.9338531494140625 155.538299560546875 158.592315673828125 169.4674530029296875 170.2375335693359375 167.0259246826171875 159.2163238525390625 150.5703125 153.74041748046875 158.119476318359375 165.2745208740234375 165.0476226806640625 168.8786163330078125 162.88397216796875 173.952880859375 177.4560394287109375 179.3291778564453125 181.3944854736328125 178.306549072265625 183.4724884033203125 192.019439697265625 199.55364990234375 207.5964508056640625 216.40869140625 225.883758544921875 235.24456787109375 243.6475372314453125 249.650543212890625 255.266510009765625 259.674652099609375 267.477294921875 281.10443115234375 291.170257568359375 298.19415283203125 301.920806884765625 304.165008544921875 304.8828125 303.97674560546875 305.02227783203125 -9999 -9999 -9999 -9999 -9999 -9999 -9999 -9999 -9999 -9999 -9999 -9999 -9999 -9999 -9999 -9999 -9999 -9999 -9999 -9999 -9999 -9999 -9999 -9999 -9999
186.9285888671875 186.7628173828125 187.16705322265625 186.8812103271484375 186.6295166015625 186.407928466796875 186.0943756103515625 185.7534637451171875 184.346649169921875 184.346588134765625 184.91131591796875 187.107147216796875 188.1538848876953125 188.493988037109375 187.5888671875 187.6576385498046875 188.787017822265625 188.831756591796875 188.8806915283203125 188.9698028564453125 189.0593109130859375 189.08819580078125 189.0772552490234375 189.040771484375 188.9972991943359375 188.9875030517578125 188.9152374267578125 188.7664337158203125 188.65643310546875 188.5326690673828125 188.4399566650390625 188.4092254638671875 188.37481689453125 188.1286163330078125 181.636566162109375 177.9780731201171875 187.3090667724609375 186.9902801513671875 186.8321075439453125 185.9603729248046875 183.992584228515625 183.905670166015625 183.2039337158203125 183.0599822998046875 180.420074462890625 182.519256591796875 182.201416015625 181.10723876953125 181.9923858642578125 181.6158905029296875 181.0930633544921875 179.4911346435546875 179.837982177734375 179.23388671875 178.85284423828125 179.2486114501953125 179.4130859375 179.52508544921875 179.623443603515625 178.6803436279296875 177.2210693359375 179.804046630859375 179.81805419921875 179.83172607421875 179.5269775390625 178.1842498779296875 178.9822845458984375 178.553741455078125 178.6932373046875 177.306976318359375 177.2122802734375 180.321990966796875 180.9254302978515625 181.26239013671875 183.619598388671875 187.757232666015625 188.9337005615234375 188.9617767333984375 187.06219482421875 190.131011962890625 191.466064453125 192.2223968505859375 192.8370361328125 193.6847991943359375 194.229156494140625 194.3486328125 194.4242706298828125 194.3379058837890625 193.947540283203125 193.877685546875 193.1911468505859375 190.9332122802734375 189.11962890625 188.3458251953125 186.828216552734375 182.706451416015625 183.84173583984375 187.06903076171875 187.1892547607421875 187.0254974365234375 186.8175201416015625 185.60089111328125 185.4442901611328125 185.303924560546875 184.978363037109375 185.5701751708984375 185.4522857666015625 184.2804718017578125 183.4249267578125 183.4248809814453125 184.1270751953125 183.3065185546875 184.6639251708984375 184.7957916259765625 184.988067626953125 185.11395263671875 184.500396728515625 187.52752685546875 189.4831390380859375 191.326263427734375 196.9359283447265625 194.8362884521484375 186.97064208984375 184.3814849853515625 184.2873077392578125 183.46539306640625 183.77374267578125 184.1037750244140625 184.7253265380859375 187.2667999267578125 189.4408416748046875 191.5941619873046875 192.918365478515625 193.5089111328125 194.6505584716796875 195.4138031005859375 196.9262237548828125 200.6643524169921875 204.4201507568359375 201.175323486328125 195.8498382568359375 191.049346923828125 188.3018035888671875 186.050079345703125 184.9698944091796875 184.80413818359375 183.5082855224609375 178.2589569091796875 167.95831298828125 163.36541748046875 165.36895751953125 160.8357696533203125 155.0517425537109375 157.2414703369140625 165.63177490234375 169.338531494140625 169.79681396484375 164.87847900390625 152.5643768310546875 149.8257293701171875 152.1523590087890625 158.9490509033203125 161.2554168701171875 162.8839263916015625 168.643585205078125 172.312255859375 174.2395477294921875 175.1890716552734375 175.8581695556640625 178.2183837890625 186.9750823974609375 191.8613128662109375 192.019439697265625 205.2684478759765625 214.8811187744140625 223.6917572021484375 232.8413848876953125 241.1270751953125 248.110504150390625 253.9039154052734375 258.795135498046875 268.822174072265625 286.6273193359375 297.15386962890625 299.993133544921875 300.482574462890625 303.055145263671875 303.410064697265625 303.341552734375 303.506866455078125 303.75439453125 -9999 -9999 -9999 -9999 -9999 -9999 -9999 -9999 -9999 -9999 -9999 -9999 -9999 -9999 -9999 -9999 -9999 -9999 -9999 -9999 -9999 -9999 -9999 -9999
187.4317474365234375 187.2557830810546875 187.99859619140625 187.5585174560546875 187.478240966796875 187.2183990478515625 186.7865447998046875 186.4972076416015625 186.2113494873046875 186.0799407958984375 184.346527099609375 184.346466064453125 185.8230743408203125 186.7982940673828125 186.473358154296875 187.87255859375 188.130126953125 188.3623504638671875 188.349639892578125 188.4178009033203125 188.5854949951171875 188.5924224853515625 188.5829620361328125 188.6409912109375 188.785491943359375 188.8551483154296875 188.8501129150390625 188.7375030517578125 188.63055419921875 188.5536041259765625 188.475311279296875 188.445404052734375 188.315582275390625 187.1902313232421875 182.6209259033203125 177.9780120849609375 186.0186767578125 185.9206390380859375 184.897613525390625 184.19354248046875 183.7846221923828125 180.8712310791015625 182.6304779052734375 182.119720458984375 180.4200286865234375 181.2815399169921875 180.915374755859375 179.91253662109375 180.8567352294921875 180.78900146484375 180.3700714111328125 178.413970947265625 177.61370849609375 178.0052947998046875 177.8679046630859375 178.149139404296875 178.355682373046875 178.313232421875 178.2768402099609375 177.2210235595703125 177.2606658935546875 178.4682769775390625 178.3582916259765625 178.14434814453125 177.9770050048828125 176.985198974609375 177.80267333984375 177.6331024169921875 177.3387451171875 176.51007080078125 178.9144134521484375 178.63958740234375 177.9777069091796875 180.0660400390625 181.0405426025390625 184.45928955078125 187.118988037109375 187.600189208984375 184.8384552001953125 187.462310791015625 188.136749267578125 189.4128570556640625 190.8838958740234375 192.1329345703125 192.703826904296875 192.5619049072265625 192.7069549560546875 193.0059967041015625 192.4766693115234375 192.1046600341796875 191.012237548828125 189.6825103759765625 188.690887451171875 188.0654449462890625 187.0001983642578125 183.0596466064453125 182.4710235595703125 186.990478515625 187.1387939453125 187.0504302978515625 186.972412109375 186.6096954345703125 186.3415985107421875 186.1539764404296875 185.859649658203125 184.447235107421875 183.74298095703125 183.7429351806640625 184.426422119140625 184.2680206298828125 184.615997314453125 185.04461669921875 185.756622314453125 188.6642303466796875 191.0475921630859375 187.641998291015625 185.5428619384765625 188.7891845703125 193.795989990234375 195.5652008056640625 200.123321533203125 201.2312774658203125 195.8799896240234375 187.7648162841796875 185.1611175537109375 185.05322265625 184.2610626220703125 185.667388916015625 185.206268310546875 186.1110992431640625 187.4259490966796875 190.335784912109375 191.367431640625 192.4400177001953125 193.446197509765625 194.5454254150390625 195.4023590087890625 198.08978271484375 202.0825042724609375 201.031829833984375 196.66558837890625 192.8235321044921875 189.6404266357421875 186.58831787109375 184.366424560546875 181.534271240234375 178.5301666259765625 171.9766082763671875 165.3023834228515625 159.5847930908203125 157.6645660400390625 156.027374267578125 154.147216796875 153.510406494140625 156.0178985595703125 163.8639373779296875 169.413330078125 166.3752288818359375 155.49267578125 149.317901611328125 153.53948974609375 157.2505645751953125 162.725372314453125 165.7085723876953125 168.6614837646484375 171.5343017578125 172.3583221435546875 175.3606109619140625 173.710052490234375 180.799285888671875 190.359100341796875 193.686126708984375 200.1954345703125 207.9162445068359375 215.8678131103515625 224.369415283203125 233.3391265869140625 241.66961669921875 248.74700927734375 254.05133056640625 260.28070068359375 273.86334228515625 293.491668701171875 303.07965087890625 303.593658447265625 301.591766357421875 302.16912841796875 302.732147216796875 302.897491455078125 -9999 -9999 -9999 -9999 -9999 -9999 -9999 -9999 -9999 -9999 -9999 -9999 -9999 -9999 -9999 -9999 -9999 -9999 -9999 -9999 -9999 -9999 -9999 -9999 -9999 -9999
