ncols        64
nrows        71
xllcorner    726726.000000000000
yllcorner    7127190.000000000000
cellsize     160.000000000000
NODATA_value -9999
-9999.0 -9999 -9999 -9999 -9999 -9999 -9999 -9999 -9999 -9999 -9999 -9999 -9999 -9999 -9999 -9999 -9999 -9999 -9999 -9999 -9999 -9999 -9999 -9999 -9999 -9999 -9999 -9999 -9999 -9999 -9999 -9999 268.56207275390625 275.58306884765625 285.166046142578125 296.102264404296875 305.325042724609375 -9999 -9999 -9999 -9999 -9999 -9999 -9999 -9999 -9999 -9999 -9999 -9999 -9999 -9999 -9999 -9999 -9999 -9999 -9999 -9999 -9999 -9999 -9999 -9999 -9999 -9999 -9999 
-9999 -9999 -9999 -9999 -9999 -9999 -9999 -9999 -9999 -9999 -9999 -9999 -9999 -9999 -9999 -9999 -9999 -9999 -9999 -9999 -9999 -9999 -9999 -9999 -9999 -9999 -9999 -9999 276.48309326171875 270.8599853515625 268.845062255859375 268.082550048828125 267.459503173828125 271.66180419921875 281.436065673828125 291.763763427734375 303.765655517578125 -9999 -9999 -9999 -9999 -9999 -9999 -9999 -9999 -9999 -9999 -9999 -9999 -9999 -9999 -9999 -9999 -9999 -9999 -9999 -9999 -9999 -9999 -9999 -9999 -9999 -9999 -9999 
-9999 -9999 -9999 -9999 -9999 -9999 -9999 -9999 -9999 -9999 -9999 -9999 -9999 -9999 -9999 -9999 -9999 -9999 -9999 -9999 -9999 -9999 -9999 -9999 -9999 -9999 289.645721435546875 283.33770751953125 277.081756591796875 271.19073486328125 269.3773193359375 267.480804443359375 266.67645263671875 264.568359375 278.93060302734375 287.90972900390625 301.98699951171875 310.90814208984375 308.810333251953125 -9999 313.2684326171875 308.927459716796875 304.73291015625 298.81658935546875 284.4439697265625 -9999 -9999 -9999 -9999 -9999 -9999 -9999 -9999 -9999 -9999 -9999 -9999 -9999 -9999 -9999 -9999 -9999 -9999 -9999 
-9999 -9999 -9999 -9999 -9999 -9999 -9999 -9999 -9999 -9999 -9999 -9999 -9999 -9999 -9999 -9999 -9999 -9999 -9999 -9999 -9999 -9999 -9999 -9999 -9999 -9999 -9999 285.8155517578125 280.88848876953125 274.404632568359375 267.480804443359375 267.376007080078125 264.568115234375 265.6435546875 272.899627685546875 283.981170654296875 299.042205810546875 309.599700927734375 306.172210693359375 310.8775634765625 310.820404052734375 304.34710693359375 299.997894287109375 293.417449951171875 277.8138427734375 264.4835205078125 263.756591796875 273.061981201171875 301.455810546875 327.064727783203125 -9999 -9999 -9999 -9999 -9999 -9999 -9999 -9999 -9999 -9999 -9999 -9999 -9999 -9999 
-9999 -9999 -9999 -9999 -9999 -9999 -9999 -9999 -9999 -9999 -9999 -9999 -9999 -9999 -9999 -9999 -9999 -9999 -9999 -9999 308.56280517578125 -9999 -9999 293.541168212890625 292.927581787109375 293.532623291015625 288.3055419921875 287.218353271484375 285.02105712890625 275.93463134765625 269.4439697265625 268.785430908203125 262.38458251953125 262.384796142578125 270.655548095703125 279.9114990234375 286.697021484375 295.358062744140625 298.554931640625 295.45709228515625 300.29058837890625 299.166107177734375 294.83575439453125 286.25201416015625 263.32415771484375 263.32415771484375 265.779022216796875 281.453399658203125 301.2686767578125 321.0162353515625 331.13995361328125 -9999 -9999 -9999 -9999 -9999 -9999 -9999 -9999 -9999 -9999 -9999 -9999 -9999 
-9999 -9999 -9999 -9999 -9999 -9999 -9999 -9999 -9999 -9999 -9999 -9999 -9999 -9999 -9999 -9999 -9999 -9999 325.499481201171875 325.6044921875 309.7421875 294.24114990234375 294.24114990234375 288.536865234375 289.894775390625 288.965728759765625 278.4266357421875 283.9462890625 282.6690673828125 279.473724365234375 269.484710693359375 266.649078369140625 264.497314453125 262.38433837890625 264.9052734375 268.874420166015625 265.106414794921875 279.167877197265625 279.458221435546875 282.35333251953125 288.86578369140625 292.872650146484375 294.255584716796875 286.114044189453125 269.304931640625 263.32391357421875 271.903717041015625 291.157806396484375 298.75921630859375 311.974884033203125 321.13104248046875 328.54296875 -9999 -9999 -9999 -9999 -9999 -9999 -9999 -9999 -9999 -9999 -9999 -9999 
-9999 -9999 -9999 -9999 -9999 -9999 -9999 -9999 -9999 -9999 -9999 -9999 -9999 -9999 -9999 -9999 -9999 -9999 314.46759033203125 319.704986572265625 314.301361083984375 302.2662353515625 296.20611572265625 290.288482666015625 289.123443603515625 286.860687255859375 284.72344970703125 278.4263916015625 278.426177978515625 276.517303466796875 276.16644287109375 283.2889404296875 286.006011962890625 268.769317626953125 260.74151611328125 261.176910400390625 265.106414794921875 269.100982666015625 276.222686767578125 287.704376220703125 297.510894775390625 295.683441162109375 291.2591552734375 280.86773681640625 267.123626708984375 263.02349853515625 275.505584716796875 292.91595458984375 301.594512939453125 305.692474365234375 312.148590087890625 320.486602783203125 -9999 -9999 -9999 -9999 -9999 -9999 -9999 -9999 -9999 -9999 -9999 -9999 
-9999 -9999 -9999 -9999 -9999 -9999 -9999 -9999 -9999 -9999 -9999 -9999 -9999 -9999 -9999 -9999 -9999 305.795654296875 307.61419677734375 312.33660888671875 312.501678466796875 302.968963623046875 299.753509521484375 294.4676513671875 288.8760986328125 286.645172119140625 282.047943115234375 278.736663818359375 282.7923583984375 277.986328125 279.636505126953125 281.981658935546875 285.192169189453125 278.871002197265625 262.40435791015625 259.3966064453125 260.8817138671875 269.478240966796875 283.429107666015625 298.559722900390625 302.4278564453125 299.684814453125 286.5723876953125 265.70550537109375 265.70526123046875 260.11492919921875 277.6761474609375 291.19866943359375 299.865234375 305.5625 307.8553466796875 311.788055419921875 317.833221435546875 -9999 -9999 -9999 -9999 -9999 -9999 -9999 -9999 -9999 -9999 -9999 
-9999 -9999 -9999 -9999 -9999 -9999 -9999 -9999 -9999 -9999 -9999 -9999 -9999 -9999 -9999 333.778289794921875 333.686187744140625 313.08001708984375 303.0462646484375 306.5325927734375 309.9097900390625 305.584228515625 297.966278076171875 295.18701171875 290.9189453125 289.14208984375 293.513916015625 282.859344482421875 281.02313232421875 280.64697265625 280.75592041015625 280.4267578125 279.79083251953125 280.605804443359375 270.757843017578125 260.830169677734375 259.3963623046875 265.790924072265625 258.67034912109375 288.44927978515625 292.149871826171875 293.1590576171875 281.784820556640625 271.429718017578125 267.97760009765625 253.9227447509765625 272.983551025390625 295.779693603515625 301.498138427734375 306.175567626953125 308.716033935546875 309.211700439453125 311.623260498046875 -9999 -9999 -9999 -9999 -9999 -9999 -9999 -9999 -9999 -9999 -9999 
-9999 -9999 -9999 -9999 -9999 -9999 -9999 -9999 -9999 -9999 -9999 -9999 -9999 -9999 321.140106201171875 328.32073974609375 337.39776611328125 325.24176025390625 306.156890869140625 298.172393798828125 302.009185791015625 302.729034423828125 299.61883544921875 296.07379150390625 292.987823486328125 297.1531982421875 306.19451904296875 307.8597412109375 291.622833251953125 287.680633544921875 286.994232177734375 282.84033203125 269.304779052734375 269.304534912109375 265.93841552734375 263.540863037109375 262.183258056640625 258.67010498046875 260.921661376953125 269.951568603515625 277.561431884765625 278.761077880859375 276.8804931640625 265.425018310546875 264.214141845703125 253.922515869140625 271.62628173828125 299.0286865234375 311.57049560546875 315.009735107421875 314.145355224609375 313.66278076171875 312.497589111328125 -9999 -9999 -9999 -9999 -9999 -9999 -9999 -9999 -9999 -9999 -9999 
-9999 -9999 -9999 -9999 -9999 -9999 -9999 -9999 -9999 -9999 -9999 -9999 -9999 -9999 318.315765380859375 315.2181396484375 322.16973876953125 323.328338623046875 311.102813720703125 297.9598388671875 295.3565673828125 298.953216552734375 298.37225341796875 296.093414306640625 293.37738037109375 294.649383544921875 298.08538818359375 310.41790771484375 303.7928466796875 286.119964599609375 281.20989990234375 281.318603515625 282.219573974609375 291.24542236328125 282.292236328125 276.202728271484375 267.21923828125 262.291900634765625 258.669891357421875 260.1907958984375 270.808135986328125 274.22418212890625 268.29901123046875 257.917724609375 250.671478271484375 240.5185089111328125 280.4078369140625 313.842437744140625 332.825927734375 324.802947998046875 324.292022705078125 322.480926513671875 316.25823974609375 -9999 -9999 -9999 -9999 -9999 -9999 -9999 -9999 -9999 -9999 -9999 
-9999 -9999 -9999 -9999 -9999 -9999 -9999 -9999 -9999 -9999 -9999 -9999 -9999 -9999 321.76568603515625 310.569000244140625 309.465576171875 314.5260009765625 310.2557373046875 302.60821533203125 293.141021728515625 294.430877685546875 295.891387939453125 295.562225341796875 293.350860595703125 291.26458740234375 291.530059814453125 297.965118408203125 302.592132568359375 289.745635986328125 282.901519775390625 299.55706787109375 305.26263427734375 309.30120849609375 305.58807373046875 313.6181640625 302.395538330078125 275.793853759765625 264.701446533203125 258.669647216796875 261.1907958984375 265.446990966796875 265.202392578125 249.3769073486328125 240.518280029296875 258.574249267578125 283.12237548828125 310.563507080078125 335.740966796875 336.592315673828125 331.544677734375 330.0260009765625 -9999 -9999 -9999 -9999 -9999 -9999 -9999 -9999 -9999 -9999 -9999 -9999 
-9999 -9999 -9999 -9999 -9999 -9999 -9999 -9999 -9999 -9999 -9999 -9999 -9999 -9999 -9999 307.950531005859375 299.462158203125 296.963348388671875 296.963104248046875 294.409393310546875 293.78155517578125 290.258392333984375 291.49822998046875 299.033966064453125 309.523834228515625 316.009613037109375 295.558319091796875 293.57470703125 300.442291259765625 291.662994384765625 278.996795654296875 300.1002197265625 313.413726806640625 302.326751708984375 308.30999755859375 336.499725341796875 322.709869384765625 291.5321044921875 273.371673583984375 271.01898193359375 259.107421875 261.3529052734375 254.506683349609375 239.987213134765625 237.5206451416015625 273.535736083984375 291.506805419921875 310.665252685546875 325.317596435546875 338.9622802734375 340.18890380859375 340.76776123046875 -9999 -9999 -9999 -9999 -9999 -9999 -9999 -9999 -9999 -9999 -9999 -9999 
-9999 -9999 -9999 -9999 -9999 -9999 -9999 -9999 -9999 -9999 -9999 -9999 -9999 -9999 -9999 307.84185791015625 308.163421630859375 315.897369384765625 304.583740234375 295.260162353515625 290.115020751953125 289.3824462890625 287.79248046875 291.856903076171875 300.486541748046875 309.41546630859375 303.570831298828125 290.188201904296875 292.446197509765625 288.1629638671875 277.691986083984375 283.72906494140625 300.283416748046875 291.321685791015625 316.42742919921875 325.316131591796875 320.3173828125 297.021392822265625 276.987335205078125 269.014984130859375 262.994598388671875 254.31805419921875 247.3530731201171875 237.520416259765625 257.561859130859375 290.6470947265625 308.061767578125 321.331695556640625 337.44134521484375 349.193939208984375 347.114837646484375 -9999 -9999 -9999 -9999 -9999 -9999 -9999 -9999 -9999 -9999 -9999 -9999 -9999 
-9999 -9999 -9999 -9999 -9999 -9999 -9999 -9999 -9999 -9999 -9999 -9999 -9999 -9999 -9999 -9999 -9999 328.388397216796875 329.198028564453125 323.5496826171875 305.01123046875 293.752471923828125 288.2432861328125 287.63427734375 295.44793701171875 301.358917236328125 304.1575927734375 293.695526123046875 283.663360595703125 287.436370849609375 281.535186767578125 273.742340087890625 282.883880615234375 284.09619140625 315.25579833984375 317.553955078125 311.626495361328125 296.431365966796875 276.971588134765625 269.291778564453125 263.92413330078125 249.463897705078125 242.6157989501953125 237.5201873779296875 255.32794189453125 286.96185302734375 303.28814697265625 319.575103759765625 336.930511474609375 347.277191162109375 -9999 -9999 -9999 -9999 -9999 -9999 -9999 -9999 -9999 -9999 -9999 -9999 -9999 -9999 
-9999 -9999 -9999 -9999 -9999 298.301239013671875 -9999 -9999 -9999 -9999 -9999 -9999 -9999 -9999 -9999 -9999 -9999 322.129241943359375 325.4132080078125 321.3895263671875 315.39794921875 313.403656005859375 303.426055908203125 293.566497802734375 286.248565673828125 287.3985595703125 293.623199462890625 291.534820556640625 282.111175537109375 278.925323486328125 282.482940673828125 273.430328369140625 268.28985595703125 272.946533203125 290.500274658203125 310.06976318359375 301.85223388671875 295.211578369140625 280.228790283203125 266.833831787109375 255.62640380859375 248.523712158203125 241.553985595703125 237.51995849609375 246.722564697265625 267.860595703125 292.330230712890625 314.81103515625 333.00054931640625 342.78363037109375 343.845977783203125 -9999 -9999 -9999 -9999 -9999 -9999 -9999 -9999 -9999 -9999 -9999 -9999 -9999 
-9999 -9999 -9999 286.10614013671875 285.065185546875 291.1282958984375 295.5906982421875 -9999 -9999 -9999 -9999 -9999 -9999 -9999 -9999 -9999 317.239227294921875 314.813934326171875 318.128082275390625 316.772979736328125 310.364501953125 307.922760009765625 307.594818115234375 304.72467041015625 291.645538330078125 284.048248291015625 283.353424072265625 286.855194091796875 282.091217041015625 276.302459716796875 271.95635986328125 274.355621337890625 264.2320556640625 264.597442626953125 268.25860595703125 287.185638427734375 289.6041259765625 288.90960693359375 280.22833251953125 270.231658935546875 256.746063232421875 250.2773895263671875 242.6251678466796875 236.4169158935546875 237.986785888671875 253.5055389404296875 280.899169921875 306.176513671875 331.33953857421875 350.950653076171875 351.512847900390625 -9999 -9999 -9999 -9999 -9999 -9999 -9999 -9999 -9999 -9999 -9999 -9999 -9999 
-9999 -9999 -9999 -9999 281.77301025390625 278.530548095703125 282.6099853515625 -9999 -9999 -9999 -9999 -9999 -9999 -9999 -9999 -9999 324.16754150390625 314.83154296875 311.005645751953125 312.05328369140625 307.59454345703125 303.513885498046875 300.860565185546875 300.79327392578125 297.51763916015625 289.15234375 284.034759521484375 280.520843505859375 278.84442138671875 272.31842041015625 271.95611572265625 272.48541259765625 265.709136962890625 257.920928955078125 257.394073486328125 260.809417724609375 268.81378173828125 273.90020751953125 241.0113677978515625 256.41937255859375 249.9094696044921875 246.1074371337890625 244.0679931640625 244.5818939208984375 231.762542724609375 231.762542724609375 258.85540771484375 289.705078125 319.851715087890625 350.661865234375 367.277679443359375 364.4774169921875 -9999 -9999 -9999 -9999 -9999 -9999 -9999 -9999 -9999 -9999 -9999 -9999 
-9999 -9999 -9999 -9999 276.830291748046875 274.10211181640625 276.49407958984375 284.96649169921875 284.861785888671875 -9999 -9999 -9999 -9999 -9999 328.04107666015625 325.839752197265625 323.194549560546875 317.785400390625 306.559356689453125 303.581573486328125 303.180755615234375 299.816314697265625 296.27642822265625 295.010711669921875 296.771881103515625 292.68841552734375 283.58502197265625 279.20367431640625 273.601776123046875 270.335723876953125 267.679412841796875 271.7288818359375 269.912872314453125 250.5458221435546875 252.1022491455078125 249.631072998046875 243.3199005126953125 246.413726806640625 241.0113677978515625 241.011138916015625 241.0109100341796875 238.187286376953125 238.1870574951171875 247.01995849609375 234.6920166015625 231.7623138427734375 247.0764617919921875 269.516387939453125 297.88604736328125 338.65234375 355.010040283203125 360.0748291015625 352.407928466796875 -9999 -9999 -9999 -9999 -9999 -9999 -9999 -9999 -9999 -9999 -9999 
-9999 -9999 -9999 275.612762451171875 272.194183349609375 271.61724853515625 270.621063232421875 272.55615234375 275.45318603515625 277.9981689453125 288.741546630859375 303.39898681640625 315.45062255859375 -9999 324.500885009765625 321.35546875 317.741241455078125 314.627960205078125 305.765838623046875 297.58612060546875 298.104827880859375 294.853179931640625 292.267120361328125 291.471435546875 291.351715087890625 289.10760498046875 284.3251953125 276.53759765625 271.188201904296875 269.447906494140625 265.112884521484375 268.2860107421875 264.71380615234375 258.173065185546875 250.54559326171875 244.5863800048828125 243.3199005126953125 243.319671630859375 252.2493438720703125 264.12261962890625 270.22076416015625 256.831573486328125 239.3423919677734375 238.18682861328125 234.2643280029296875 226.880340576171875 233.9658660888671875 253.7680816650390625 279.668426513671875 318.937042236328125 341.984039306640625 345.175750732421875 341.254180908203125 330.9461669921875 316.771026611328125 -9999 -9999 -9999 -9999 -9999 -9999 -9999 -9999 -9999 
-9999 -9999 295.417755126953125 282.89495849609375 277.847564697265625 280.938751220703125 277.382476806640625 270.00103759765625 270.000823974609375 276.162689208984375 287.371246337890625 287.371246337890625 313.84649658203125 325.7757568359375 325.590789794921875 317.80633544921875 299.6134033203125 307.9530029296875 302.92938232421875 293.35198974609375 291.997314453125 292.089630126953125 290.26324462890625 291.5213623046875 290.352508544921875 289.4903564453125 282.61065673828125 276.945953369140625 271.235626220703125 267.6160888671875 264.615447998046875 261.50482177734375 258.173309326171875 258.210479736328125 267.599945068359375 264.5389404296875 260.944244384765625 264.814239501953125 244.651031494140625 281.62176513671875 275.742523193359375 273.315948486328125 262.380584716796875 232.497222900390625 232.4969940185546875 223.84674072265625 226.1135101318359375 239.5973052978515625 266.97137451171875 295.290802001953125 319.040771484375 326.96405029296875 322.148834228515625 316.342987060546875 310.67218017578125 303.09326171875 -9999 -9999 -9999 -9999 -9999 -9999 -9999 -9999 
-9999 -9999 -9999 297.08544921875 304.339019775390625 303.883575439453125 300.74188232421875 289.44952392578125 271.227813720703125 270.000579833984375 284.16748046875 302.27618408203125 312.503173828125 319.6802978515625 328.33001708984375 320.28192138671875 307.438323974609375 299.6131591796875 296.895782470703125 291.43121337890625 287.460601806640625 287.772705078125 287.76947021484375 288.01971435546875 289.30133056640625 292.12725830078125 287.57806396484375 280.47027587890625 272.308563232421875 265.217681884765625 265.422210693359375 259.863922119140625 258.548583984375 271.913421630859375 287.354278564453125 286.924591064453125 278.690765380859375 279.47406005859375 285.692352294921875 294.56072998046875 308.10809326171875 272.625091552734375 262.6658935546875 248.325286865234375 235.184967041015625 224.642822265625 213.4036102294921875 230.561279296875 257.2615966796875 270.97186279296875 292.8475341796875 306.152587890625 298.056732177734375 302.893646240234375 302.000274658203125 295.495330810546875 -9999 -9999 -9999 -9999 -9999 -9999 -9999 -9999 
-9999 -9999 -9999 -9999 320.047943115234375 322.691925048828125 321.880126953125 316.329254150390625 300.916229248046875 273.304229736328125 266.5120849609375 285.377777099609375 303.28021240234375 313.683074951171875 320.7828369140625 319.9805908203125 307.188995361328125 295.616058349609375 290.114532470703125 288.565216064453125 285.23272705078125 285.53009033203125 285.005859375 283.812164306640625 285.24188232421875 287.197540283203125 287.845794677734375 286.628936767578125 275.753875732421875 265.876800537109375 260.109619140625 262.1279296875 262.849761962890625 282.353729248046875 300.7532958984375 303.360626220703125 293.707061767578125 287.77008056640625 291.7005615234375 302.145843505859375 311.648101806640625 297.676483154296875 258.515777587890625 249.2468109130859375 232.880462646484375 223.27288818359375 213.40338134765625 221.56829833984375 238.259552001953125 252.0244598388671875 269.774688720703125 284.235565185546875 280.576690673828125 286.809722900390625 277.732391357421875 287.80133056640625 284.221282958984375 -9999 -9999 -9999 -9999 -9999 -9999 -9999 
-9999 -9999 -9999 -9999 -9999 347.837371826171875 343.119598388671875 330.151336669921875 325.7113037109375 302.793304443359375 265.7796630859375 265.329010009765625 293.36590576171875 306.04144287109375 320.25518798828125 325.129638671875 314.696685791015625 302.211456298828125 285.8016357421875 283.57305908203125 282.818817138671875 285.156036376953125 285.74212646484375 282.967559814453125 283.191986083984375 285.77423095703125 283.98126220703125 283.93115234375 281.99896240234375 -9999 256.1512451171875 258.240264892578125 263.7557373046875 282.120361328125 300.296417236328125 303.00616455078125 300.62969970703125 294.019073486328125 290.545013427734375 293.9873046875 300.94207763671875 297.454437255859375 269.251312255859375 243.470794677734375 227.5894012451171875 218.98138427734375 211.64752197265625 218.422088623046875 223.0010223388671875 236.276397705078125 251.43792724609375 264.0955810546875 267.128082275390625 277.732147216796875 282.799163818359375 281.792816162109375 277.239898681640625 -9999 -9999 -9999 -9999 -9999 -9999 -9999 
-9999 -9999 -9999 304.48236083984375 315.951141357421875 345.86590576171875 345.2313232421875 331.603790283203125 320.867919921875 311.8450927734375 286.59161376953125 259.813812255859375 255.6110382080078125 288.677459716796875 275.90020751953125 328.818450927734375 324.99468994140625 316.402435302734375 297.278045654296875 277.5006103515625 276.7069091796875 281.25537109375 287.991485595703125 277.5594482421875 289.6470947265625 -9999 288.6680908203125 280.30810546875 -9999 -9999 -9999 256.1512451171875 262.33941650390625 281.39166259765625 299.4434814453125 299.303192138671875 296.21710205078125 293.570220947265625 294.82470703125 292.1943359375 284.963226318359375 281.261962890625 276.44622802734375 266.34649658203125 244.2320098876953125 216.889892578125 211.6472930908203125 214.982025146484375 217.2035980224609375 231.7375335693359375 242.377685546875 249.1699066162109375 258.50726318359375 271.204620361328125 275.434906005859375 272.3956298828125 -9999 -9999 -9999 -9999 -9999 -9999 -9999 -9999 
-9999 -9999 297.2294921875 306.82586669921875 283.886138916015625 324.4385986328125 338.113250732421875 331.349853515625 314.803314208984375 304.78985595703125 289.26715087890625 259.41363525390625 255.610809326171875 275.90020751953125 311.060455322265625 329.250823974609375 332.13934326171875 323.016754150390625 308.226806640625 290.948394775390625 270.137481689453125 270.78021240234375 280.470367431640625 286.012542724609375 277.5594482421875 290.356475830078125 -9999 282.68817138671875 272.389862060546875 -9999 -9999 255.23529052734375 259.453643798828125 278.600799560546875 296.140167236328125 295.784515380859375 287.835052490234375 287.037353515625 295.220550537109375 309.65911865234375 299.3983154296875 278.371337890625 267.71820068359375 257.2286376953125 244.5035400390625 204.9378814697265625 209.471435546875 209.8788909912109375 214.2424468994140625 228.4337005615234375 228.433929443359375 245.4578857421875 251.162078857421875 260.4752197265625 260.69970703125 263.399627685546875 269.556427001953125 -9999 -9999 -9999 -9999 -9999 -9999 -9999 
-9999 274.65887451171875 275.754974365234375 278.3074951171875 283.886138916015625 285.188873291015625 303.571746826171875 317.199127197265625 317.736541748046875 300.880859375 286.715911865234375 268.562774658203125 250.14984130859375 252.7783966064453125 303.205810546875 328.105224609375 328.8040771484375 320.75970458984375 309.127044677734375 297.06488037109375 274.386474609375 266.18646240234375 275.540130615234375 280.1109619140625 272.236358642578125 267.54730224609375 283.642242431640625 276.63916015625 266.5128173828125 -9999 -9999 253.1001129150390625 256.87603759765625 268.6781005859375 287.85369873046875 287.501190185546875 281.119232177734375 277.912872314453125 289.969390869140625 311.52252197265625 298.744415283203125 281.213775634765625 264.56829833984375 249.0775909423828125 235.022491455078125 216.216156005859375 204.937652587890625 203.9217681884765625 209.4664764404296875 230.1270599365234375 244.2009124755859375 245.1721343994140625 245.41534423828125 253.799072265625 255.0123291015625 258.769866943359375 267.8533935546875 -9999 -9999 -9999 -9999 -9999 -9999 -9999 
-9999 -9999 256.255615234375 254.471038818359375 262.65802001953125 265.4879150390625 268.594940185546875 274.403106689453125 290.54876708984375 295.677947998046875 281.950286865234375 268.774017333984375 248.87109375 237.7261505126953125 261.282623291015625 305.200042724609375 322.035491943359375 315.20440673828125 305.422088623046875 296.87261962890625 279.852294921875 285.885894775390625 264.466796875 275.053070068359375 273.0125732421875 259.6483154296875 264.873687744140625 268.77777099609375 260.17071533203125 -9999 255.365203857421875 250.4500885009765625 251.816925048828125 261.5050048828125 272.730560302734375 278.05657958984375 271.810638427734375 268.527252197265625 271.47418212890625 287.84393310546875 289.3695068359375 278.20867919921875 263.145721435546875 246.622283935546875 228.693359375 214.5563812255859375 200.64794921875 198.9813232421875 205.609954833984375 229.4898529052734375 239.9177703857421875 232.6872406005859375 242.6812896728515625 245.2527618408203125 248.242828369140625 256.94927978515625 264.6583251953125 271.031829833984375 286.65216064453125 294.90679931640625 291.20855712890625 284.727508544921875 -9999 -9999 
-9999 207.0660552978515625 236.0335845947265625 236.2993621826171875 237.6685791015625 240.496826171875 245.9564056396484375 246.0686798095703125 249.004364013671875 262.96246337890625 272.745513916015625 267.024688720703125 254.5063629150390625 232.8053436279296875 242.211883544921875 278.803070068359375 302.862884521484375 308.082733154296875 300.375518798828125 290.200286865234375 287.17608642578125 316.784698486328125 296.32421875 258.590850830078125 260.446868896484375 254.4555206298828125 249.4293365478515625 256.830780029296875 252.4433746337890625 -9999 251.18341064453125 247.6181640625 245.1314544677734375 252.4645233154296875 261.92401123046875 265.601226806640625 261.3336181640625 257.041412353515625 255.608306884765625 263.762908935546875 266.543182373046875 264.6387939453125 258.42041015625 245.809356689453125 228.5820770263671875 214.38751220703125 194.0233001708984375 196.3896636962890625 203.3115234375 222.8903656005859375 232.68701171875 241.0217132568359375 243.4580841064453125 243.6438446044921875 243.644073486328125 255.5391845703125 253.9251556396484375 266.629425048828125 265.320404052734375 280.17431640625 280.4949951171875 278.8814697265625 -9999 -9999 
-9999 207.0660552978515625 208.7988739013671875 198.8012237548828125 219.003204345703125 220.1863861083984375 224.64691162109375 225.0883636474609375 223.043365478515625 228.311981201171875 252.0757598876953125 256.2706298828125 248.80780029296875 220.7662811279296875 224.0135955810546875 253.6021575927734375 281.8673095703125 295.59814453125 290.73974609375 282.5516357421875 279.043548583984375 312.616455078125 301.4473876953125 274.4776611328125 247.820587158203125 248.5286102294921875 241.2578582763671875 240.6912078857421875 244.0449981689453125 234.002960205078125 244.832916259765625 242.5195159912109375 237.910614013671875 236.7834320068359375 246.05865478515625 249.5401458740234375 250.0876617431640625 245.8718719482421875 242.1937103271484375 242.4604034423828125 242.9234619140625 242.5805816650390625 247.22430419921875 243.5970306396484375 234.3892974853515625 214.4774017333984375 201.865081787109375 194.0233001708984375 196.7833404541015625 212.916961669921875 232.486724853515625 241.7243194580078125 246.0257568359375 248.191741943359375 246.9528045654296875 253.9249267578125 263.665374755859375 268.072357177734375 268.736114501953125 265.320159912109375 268.6363525390625 269.514801025390625 275.421051025390625 -9999 
205.9063873291015625 202.68609619140625 199.1799468994140625 198.800994873046875 204.4144439697265625 206.7503509521484375 194.2440948486328125 210.6902923583984375 206.3537445068359375 210.82940673828125 224.5005950927734375 237.14483642578125 244.0825042724609375 235.9561614990234375 220.76605224609375 226.90802001953125 259.01519775390625 276.825042724609375 275.6090087890625 266.564605712890625 270.638519287109375 296.89886474609375 313.675323486328125 300.03289794921875 251.3618316650390625 234.7169647216796875 236.052154541015625 234.1630859375 234.002960205078125 234.9537506103515625 235.38470458984375 235.2736968994140625 232.66265869140625 230.2436981201171875 231.63726806640625 221.5835723876953125 240.955535888671875 235.88525390625 230.658050537109375 229.2631683349609375 227.0122222900390625 225.168243408203125 230.6213226318359375 235.6384429931640625 231.7343292236328125 216.9612274169921875 188.7874908447265625 191.9016571044921875 195.1743316650390625 206.5695037841796875 227.8687896728515625 242.983123779296875 246.3146514892578125 249.92388916015625 250.870452880859375 255.14569091796875 267.948150634765625 263.665618896484375 265.3199462890625 269.939422607421875 280.053070068359375 286.3033447265625 -9999 -9999 
-9999 209.506134033203125 198.80145263671875 196.927642822265625 194.4255828857421875 201.442962646484375 194.2440948486328125 191.8388671875 192.8663787841796875 199.0720977783203125 188.681640625 213.2059173583984375 225.6335906982421875 228.2155609130859375 215.2511444091796875 208.91864013671875 234.5171356201171875 259.57373046875 261.486968994140625 280.77093505859375 282.484344482421875 287.7938232421875 296.456817626953125 276.772552490234375 250.792327880859375 234.7169647216796875 233.5382843017578125 234.3480682373046875 227.909088134765625 226.530548095703125 228.902557373046875 226.907867431640625 227.3194122314453125 226.8919525146484375 221.583343505859375 225.24725341796875 229.5120697021484375 225.649505615234375 221.3997802734375 215.9051971435546875 215.9051971435546875 211.8632354736328125 212.2125091552734375 223.1998291015625 223.9403533935546875 216.429718017578125 196.7809295654296875 188.7874908447265625 187.4591217041015625 199.51953125 199.51953125 238.12213134765625 243.48321533203125 247.548736572265625 257.335601806640625 261.185333251953125 268.741546630859375 281.20489501953125 281.37457275390625 283.113861083984375 286.818511962890625 -9999 -9999 -9999 
-9999 -9999 207.2186279296875 200.2049713134765625 193.383575439453125 190.439361572265625 188.6360321044921875 187.7527923583984375 188.8175811767578125 188.6814117431640625 191.1451873779296875 195.9347991943359375 206.40496826171875 213.5492401123046875 213.2267303466796875 203.983306884765625 223.113311767578125 242.5058441162109375 242.5058441162109375 274.6451416015625 284.413665771484375 276.40606689453125 265.076446533203125 257.26812744140625 250.64208984375 236.9365997314453125 232.348724365234375 234.7305908203125 232.0140380859375 221.6121978759765625 222.44598388671875 220.2398834228515625 219.384765625 222.377471923828125 218.525726318359375 214.9743194580078125 216.4932708740234375 206.6569366455078125 212.4227447509765625 211.1341552734375 211.4739837646484375 205.2582244873046875 200.5335235595703125 206.1318817138671875 214.3486785888671875 210.811859130859375 192.7009735107421875 182.6377105712890625 182.373626708984375 194.1439208984375 221.1998291015625 237.246795654296875 241.74371337890625 244.1322479248046875 254.6435699462890625 270.081634521484375 270.9376220703125 279.134246826171875 281.5714111328125 281.18035888671875 283.028961181640625 284.992431640625 -9999 -9999 
-9999 -9999 212.7823333740234375 202.083160400390625 197.4953155517578125 192.807373046875 189.143585205078125 187.954833984375 186.86517333984375 186.905853271484375 187.43829345703125 188.997161865234375 185.7443084716796875 200.6209564208984375 204.9370880126953125 201.794464111328125 217.96722412109375 235.18017578125 256.38397216796875 265.220428466796875 260.44757080078125 255.99114990234375 251.9571380615234375 250.5468292236328125 247.853515625 236.11431884765625 230.158599853515625 230.844879150390625 231.92730712890625 221.9488983154296875 216.9285430908203125 217.0665435791015625 211.975433349609375 214.8919830322265625 216.4051055908203125 202.9710235595703125 206.6569366455078125 204.89300537109375 205.546844482421875 204.5818634033203125 205.113739013671875 201.1264190673828125 194.91192626953125 196.8753204345703125 202.2138671875 209.1339263916015625 191.8805999755859375 180.3416290283203125 184.4109039306640625 189.7818450927734375 205.167755126953125 229.9640655517578125 235.2617950439453125 237.417755126953125 248.144500732421875 269.436065673828125 275.33636474609375 275.429412841796875 278.516387939453125 290.900115966796875 302.036346435546875 305.489227294921875 -9999 -9999 
-9999 -9999 -9999 206.7840423583984375 -9999 -9999 193.4593353271484375 193.50750732421875 192.1159820556640625 186.8649444580078125 185.7443084716796875 185.74407958984375 191.72698974609375 199.4848785400390625 200.5515289306640625 189.1716766357421875 206.4158782958984375 228.3565826416015625 236.80743408203125 239.5960540771484375 236.49859619140625 239.9046630859375 241.0340423583984375 240.0164947509765625 240.888092041015625 235.8187255859375 219.35968017578125 225.133880615234375 225.62225341796875 221.687744140625 209.0503082275390625 207.1931610107421875 206.259979248046875 208.850799560546875 214.302642822265625 212.7572784423828125 202.9710235595703125 197.5755462646484375 199.093841552734375 197.578277587890625 196.20660400390625 195.6297149658203125 190.8236083984375 187.7989501953125 190.4070281982421875 193.438690185546875 190.6616058349609375 169.689056396484375 180.1406707763671875 187.2451324462890625 177.5213775634765625 215.3671417236328125 200.45648193359375 229.80731201171875 243.2773895263671875 267.512664794921875 279.0609130859375 277.36859130859375 280.68975830078125 301.483062744140625 321.56500244140625 -9999 -9999 -9999 
-9999 -9999 -9999 -9999 -9999 -9999 -9999 -9999 -9999 195.6116485595703125 190.2397918701171875 186.6265106201171875 185.7438507080078125 190.8293609619140625 191.5469970703125 189.17144775390625 194.58990478515625 205.4570159912109375 214.5738983154296875 217.7740936279296875 226.083343505859375 226.6329803466796875 226.614349365234375 227.5964508056640625 229.572601318359375 229.583892822265625 225.2964324951171875 219.3594512939453125 218.2395477294921875 217.2701873779296875 210.037506103515625 199.32415771484375 197.9256439208984375 200.534454345703125 207.9417266845703125 210.6607666015625 204.453826904296875 197.02972412109375 190.1631927490234375 189.82574462890625 189.4705657958984375 187.5593414306640625 183.9394378662109375 181.10162353515625 183.5944061279296875 188.338409423828125 187.5464019775390625 180.331512451171875 169.6888275146484375 177.521148681640625 191.26898193359375 200.4562530517578125 207.1592559814453125 216.133392333984375 243.7928924560546875 267.346221923828125 279.055389404296875 277.852874755859375 285.7459716796875 314.274169921875 -9999 -9999 -9999 -9999 
-9999 -9999 -9999 -9999 -9999 -9999 -9999 -9999 -9999 194.2663726806640625 191.049102783203125 189.7024383544921875 187.8114013671875 185.743621826171875 185.7091064453125 183.8309783935546875 187.428070068359375 183.8309783935546875 201.196502685546875 201.878387451171875 204.688232421875 209.2498931884765625 212.2769317626953125 216.1290283203125 195.5804595947265625 216.253997802734375 214.4395599365234375 212.071533203125 211.468414306640625 213.55059814453125 210.9133758544921875 201.767547607421875 193.353271484375 197.253021240234375 199.2123260498046875 202.6215972900390625 196.4289093017578125 196.7326202392578125 189.1922454833984375 184.1085205078125 183.00634765625 182.4009552001953125 180.570037841796875 180.5702667236328125 184.249664306640625 181.954193115234375 182.910736083984375 175.257049560546875 162.11138916015625 172.307647705078125 182.734649658203125 190.0516510009765625 194.7116851806640625 212.030242919921875 243.08624267578125 267.871734619140625 280.5885009765625 287.226898193359375 277.852874755859375 306.119476318359375 -9999 -9999 -9999 -9999 
-9999 -9999 -9999 -9999 -9999 -9999 -9999 -9999 -9999 189.38739013671875 188.3308258056640625 189.379119873046875 189.3189849853515625 189.3592987060546875 189.28936767578125 187.4312591552734375 183.83074951171875 187.48626708984375 190.41015625 192.38470458984375 192.76055908203125 194.22125244140625 193.893524169921875 195.5804595947265625 196.0059661865234375 199.0627593994140625 198.8988494873046875 198.7215423583984375 202.0927581787109375 205.31988525390625 205.05047607421875 203.290802001953125 196.32440185546875 190.3546142578125 191.2044219970703125 195.0317535400390625 192.1091766357421875 186.627716064453125 184.910552978515625 183.2976226806640625 180.569580078125 180.5698089599609375 181.791778564453125 195.097686767578125 203.4411163330078125 182.17657470703125 177.4913482666015625 168.769927978515625 159.209259033203125 166.274810791015625 172.1041717529296875 181.6340789794921875 188.7872772216796875 212.20135498046875 248.4617919921875 268.593536376953125 291.45257568359375 307.72259521484375 309.4407958984375 -9999 -9999 -9999 -9999 -9999 
-9999 -9999 -9999 -9999 -9999 -9999 -9999 -9999 -9999 186.162200927734375 186.162200927734375 186.4354095458984375 187.3496551513671875 189.060546875 188.0990753173828125 189.22943115234375 187.1815948486328125 183.8305206298828125 183.02020263671875 182.0042572021484375 187.039581298828125 185.3191986083984375 184.26397705078125 182.78875732421875 181.4457244873046875 182.5839385986328125 183.0989227294921875 181.728515625 187.436737060546875 193.954498291015625 197.061553955078125 197.856658935546875 195.7449493408203125 183.728607177734375 186.492156982421875 187.7873687744140625 185.94146728515625 184.4627685546875 183.5927886962890625 182.2902069091796875 182.9558258056640625 182.2793121337890625 185.85113525390625 191.854339599609375 206.0459747314453125 191.9282073974609375 185.2287445068359375 175.9143829345703125 159.4881439208984375 156.0798492431640625 165.68951416015625 176.1826019287109375 182.539947509765625 205.68218994140625 241.3041229248046875 266.956451416015625 299.09149169921875 306.847198486328125 -9999 -9999 -9999 -9999 -9999 -9999 
-9999 -9999 -9999 -9999 -9999 -9999 -9999 -9999 -9999 -9999 187.731903076171875 187.471954345703125 185.388916015625 185.3891448974609375 186.2493743896484375 187.75518798828125 187.95379638671875 188.261138916015625 185.6282806396484375 182.2572174072265625 182.0040283203125 179.679534912109375 178.9129791259765625 177.6200408935546875 177.348541259765625 177.244781494140625 177.244781494140625 176.638824462890625 178.2944793701171875 183.5547027587890625 187.0571136474609375 191.44598388671875 191.416412353515625 187.93682861328125 183.728607177734375 184.7838592529296875 184.7838592529296875 183.593017578125 188.398284912109375 188.87432861328125 196.8414154052734375 185.8601531982421875 186.27569580078125 185.8513641357421875 196.2732391357421875 195.7272796630859375 183.4490509033203125 165.707000732421875 158.6008453369140625 162.42822265625 156.079620361328125 168.0942535400390625 179.144989013671875 204.50897216796875 236.713653564453125 273.123046875 302.00762939453125 -9999 -9999 -9999 -9999 -9999 -9999 -9999 
-9999 -9999 -9999 -9999 -9999 -9999 -9999 -9999 -9999 -9999 -9999 -9999 188.3408660888671875 188.0083160400390625 185.7940216064453125 184.8909454345703125 184.8672943115234375 182.1198883056640625 183.6067657470703125 175.307525634765625 177.9153594970703125 176.535888671875 177.8364410400390625 178.5728607177734375 176.956024169921875 178.348724365234375 177.9321746826171875 175.68658447265625 175.68658447265625 175.491058349609375 178.8115081787109375 183.4033355712890625 184.9628448486328125 183.56292724609375 176.902099609375 184.5515289306640625 188.352996826171875 200.5464935302734375 209.5413055419921875 205.992095947265625 200.259185791015625 194.3471221923828125 189.7698211669921875 195.324737548828125 196.569122314453125 198.651763916015625 187.3143157958984375 178.755035400390625 161.0218353271484375 164.979339599609375 156.0793914794921875 163.61962890625 183.4452972412109375 179.1452178955078125 244.550048828125 284.240020751953125 302.276702880859375 -9999 -9999 -9999 -9999 -9999 -9999 -9999 
-9999 -9999 -9999 -9999 -9999 -9999 -9999 -9999 -9999 -9999 -9999 -9999 -9999 -9999 -9999 -9999 -9999 183.803497314453125 182.1198883056640625 177.9445343017578125 174.4292755126953125 174.42950439453125 174.4297332763671875 174.916595458984375 175.8748779296875 178.0482940673828125 179.01690673828125 179.2154998779296875 179.205780029296875 178.046966552734375 174.5016632080078125 174.501434326171875 177.2118682861328125 177.3565216064453125 176.902099609375 180.075958251953125 181.7996368408203125 186.6324310302734375 193.7968902587890625 200.1853179931640625 201.2402191162109375 198.35736083984375 195.038970947265625 198.0439605712890625 199.434295654296875 201.1783294677734375 199.8033905029296875 190.0673828125 165.5052947998046875 157.7810821533203125 156.07916259765625 169.5287628173828125 181.978515625 219.121307373046875 249.4778289794921875 286.87261962890625 305.48974609375 -9999 -9999 -9999 -9999 -9999 -9999 -9999 
-9999 -9999 -9999 -9999 -9999 -9999 -9999 -9999 -9999 -9999 -9999 -9999 -9999 -9999 -9999 -9999 -9999 -9999 -9999 -9999 179.6102752685546875 178.9912109375 177.362213134765625 175.880157470703125 174.9168243408203125 175.1087493896484375 177.3977203369140625 178.3637237548828125 180.2982940673828125 180.6393890380859375 179.89031982421875 178.179412841796875 174.5012054443359375 175.286773681640625 177.993988037109375 176.783782958984375 174.45361328125 176.6574554443359375 178.9575958251953125 186.573822021484375 194.3414764404296875 195.73858642578125 196.4276885986328125 198.298828125 199.4226531982421875 201.0499114990234375 202.3407745361328125 200.1221923828125 176.3725128173828125 156.0789337158203125 164.0096282958984375 165.6264495849609375 179.4746246337890625 218.9085845947265625 247.86541748046875 281.061309814453125 319.06207275390625 -9999 -9999 -9999 -9999 -9999 -9999 -9999 
-9999 -9999 -9999 -9999 -9999 -9999 -9999 -9999 -9999 -9999 -9999 -9999 -9999 -9999 -9999 -9999 -9999 -9999 -9999 -9999 -9999 -9999 180.3453369140625 179.85504150390625 178.1944427490234375 174.91705322265625 178.7045745849609375 179.435089111328125 180.3189544677734375 180.7087554931640625 180.466033935546875 179.969268798828125 179.5296630859375 176.26171875 174.25994873046875 173.620635986328125 173.289306640625 170.1748809814453125 172.01416015625 176.83880615234375 182.110107421875 186.39532470703125 191.4720611572265625 195.9834747314453125 195.2810821533203125 199.1470947265625 195.8773651123046875 194.2324371337890625 178.690338134765625 156.078704833984375 164.626556396484375 163.6691741943359375 174.010162353515625 216.559234619140625 242.7150726318359375 270.7364501953125 305.275146484375 -9999 -9999 -9999 -9999 -9999 -9999 -9999 
-9999 -9999 -9999 -9999 -9999 -9999 -9999 -9999 -9999 -9999 -9999 -9999 -9999 -9999 -9999 -9999 -9999 -9999 -9999 -9999 -9999 -9999 181.9026336669921875 181.3243560791015625 177.85321044921875 176.2375640869140625 175.3143310546875 179.5205535888671875 180.1354827880859375 179.2537384033203125 178.1378631591796875 178.399658203125 179.255035400390625 178.837615966796875 177.15496826171875 178.345184326171875 177.9233551025390625 176.9217376708984375 170.0748443603515625 170.5179901123046875 169.523712158203125 173.6006317138671875 181.7280426025390625 187.33709716796875 189.6438140869140625 194.1569671630859375 180.56134033203125 186.2273101806640625 179.735870361328125 158.8630218505859375 156.0784912109375 160.2985076904296875 168.3469085693359375 213.7753753662109375 240.6580047607421875 259.04425048828125 282.89404296875 299.690185546875 -9999 -9999 -9999 -9999 -9999 -9999 
-9999 -9999 -9999 -9999 -9999 -9999 -9999 -9999 -9999 -9999 -9999 -9999 -9999 -9999 -9999 -9999 -9999 -9999 -9999 -9999 167.4417266845703125 167.8191375732421875 179.5831756591796875 182.2445526123046875 181.2856292724609375 180.4010009765625 175.987762451171875 179.6499176025390625 179.1258544921875 176.6612396240234375 175.6016387939453125 176.225311279296875 177.813812255859375 178.436614990234375 178.4114990234375 178.396148681640625 177.7977294921875 176.3076171875 174.9115753173828125 170.074615478515625 165.9032440185546875 164.6743621826171875 164.67413330078125 173.6861572265625 177.255615234375 185.3060760498046875 184.0150604248046875 180.5611114501953125 178.9101409912109375 167.89666748046875 156.0782623291015625 156.0782623291015625 171.303009033203125 212.473541259765625 247.7025146484375 256.374237060546875 267.1083984375 284.083099365234375 291.304656982421875 -9999 -9999 -9999 -9999 -9999 
-9999 -9999 -9999 -9999 -9999 -9999 -9999 -9999 -9999 -9999 -9999 -9999 -9999 -9999 -9999 -9999 -9999 -9999 -9999 -9999 -9999 171.8216552734375 173.2709503173828125 171.8715667724609375 172.0147857666015625 171.92437744140625 175.60955810546875 180.45135498046875 179.83203125 178.079193115234375 178.102447509765625 175.601409912109375 175.97576904296875 177.1963348388671875 176.0738677978515625 177.5365142822265625 176.62188720703125 174.13726806640625 172.4036865234375 171.3427734375 171.5525360107421875 170.7232513427734375 165.307281494140625 162.2946624755859375 164.080291748046875 170.8222198486328125 171.70819091796875 171.3368072509765625 174.0063323974609375 171.22772216796875 164.7543182373046875 156.078033447265625 166.371368408203125 195.6661376953125 242.474945068359375 260.10992431640625 260.850494384765625 270.89080810546875 281.097381591796875 284.2550048828125 -9999 -9999 -9999 -9999 
-9999 -9999 -9999 -9999 -9999 -9999 -9999 -9999 -9999 -9999 -9999 -9999 -9999 -9999 -9999 -9999 196.1195831298828125 187.7969818115234375 191.6463775634765625 185.90814208984375 172.050140380859375 171.4093170166015625 171.4095458984375 171.4097747802734375 175.6172943115234375 170.2504425048828125 170.250213623046875 168.2449798583984375 170.776458740234375 170.6845855712890625 167.7233734130859375 164.6110992431640625 172.4185638427734375 171.978607177734375 174.85882568359375 175.7082061767578125 174.929931640625 173.7239990234375 171.0384674072265625 167.6446990966796875 169.2590179443359375 168.7390899658203125 169.2342376708984375 165.97216796875 162.29443359375 166.2744598388671875 160.9315185546875 162.4638519287109375 167.251434326171875 169.39599609375 170.2027587890625 156.0778045654296875 163.3909149169921875 182.396331787109375 217.113128662109375 250.2587432861328125 256.8402099609375 268.199371337890625 279.110015869140625 -9999 -9999 -9999 -9999 -9999 
-9999 -9999 -9999 -9999 -9999 -9999 -9999 -9999 -9999 -9999 -9999 -9999 -9999 -9999 -9999 208.108123779296875 208.61614990234375 210.98663330078125 207.2860870361328125 203.771575927734375 198.4234619140625 185.45123291015625 182.3921051025390625 176.434417724609375 179.238861083984375 179.4350128173828125 173.2177734375 176.684417724609375 177.028411865234375 174.27435302734375 173.5948944091796875 164.6110992431640625 164.610870361328125 164.6106414794921875 164.1448974609375 168.874603271484375 173.530426025390625 170.9796600341796875 169.688812255859375 169.6690673828125 167.64447021484375 158.691650390625 168.3361968994140625 163.907379150390625 162.629669189453125 160.735748291015625 157.7724609375 155.659881591796875 161.9358062744140625 164.158721923828125 160.2154388427734375 156.07757568359375 159.782623291015625 172.7986602783203125 189.476287841796875 219.3736419677734375 246.3550262451171875 269.28955078125 285.183563232421875 -9999 -9999 -9999 -9999 -9999 
-9999 -9999 -9999 -9999 -9999 -9999 -9999 -9999 -9999 -9999 -9999 -9999 -9999 -9999 -9999 -9999 209.7213287353515625 207.6641845703125 207.6641845703125 201.971282958984375 201.971282958984375 185.45123291015625 190.183685302734375 186.8029022216796875 186.350982666015625 180.0544281005859375 180.3988037109375 182.522003173828125 183.85955810546875 183.3074493408203125 182.9989471435546875 177.4554595947265625 181.8550262451171875 180.4771728515625 174.2793731689453125 164.1446685791015625 164.144439697265625 164.1442108154296875 167.396759033203125 161.745025634765625 160.8233184814453125 158.6914215087890625 165.9682464599609375 165.7142791748046875 162.0967559814453125 162.3617095947265625 165.0517730712890625 157.4175872802734375 153.1518096923828125 154.3051605224609375 151.2382965087890625 151.3531951904296875 162.1070404052734375 168.50030517578125 174.299957275390625 201.942352294921875 232.05377197265625 264.74359130859375 288.270416259765625 -9999 -9999 -9999 -9999 -9999 
-9999 -9999 -9999 -9999 -9999 -9999 -9999 -9999 -9999 -9999 -9999 -9999 -9999 -9999 -9999 -9999 212.07708740234375 211.673004150390625 211.81085205078125 209.1330718994140625 206.899932861328125 203.8199005126953125 196.3460235595703125 189.2801971435546875 182.197601318359375 181.544281005859375 187.610748291015625 183.85955810546875 186.8651275634765625 188.684722900390625 188.0626678466796875 189.475189208984375 188.2371978759765625 185.6856231689453125 180.2885284423828125 174.7165985107421875 165.9989776611328125 168.716705322265625 164.0486907958984375 164.847442626953125 166.8922119140625 162.503021240234375 158.691192626953125 157.65081787109375 165.03326416015625 165.2588043212890625 164.92498779296875 164.391876220703125 162.7640380859375 151.238067626953125 164.3273468017578125 161.762420654296875 160.8745574951171875 171.6708221435546875 180.034027099609375 198.47760009765625 223.3822479248046875 260.57781982421875 290.688385009765625 -9999 -9999 -9999 -9999 -9999 
-9999 -9999 -9999 -9999 -9999 -9999 -9999 -9999 -9999 -9999 -9999 -9999 -9999 -9999 -9999 -9999 -9999 -9999 221.79132080078125 221.4721221923828125 220.4234466552734375 214.52569580078125 205.1338348388671875 194.5611114501953125 182.6976776123046875 185.9694976806640625 187.789825439453125 192.035614013671875 192.889007568359375 194.3754730224609375 196.4261474609375 200.3757476806640625 203.4859771728515625 204.7594757080078125 174.716827392578125 202.248199462890625 165.99920654296875 185.866485595703125 179.16705322265625 175.046875 170.80291748046875 169.017547607421875 168.260223388671875 163.019775390625 156.828125 164.0419158935546875 161.8892822265625 157.3646697998046875 151.2378387451171875 155.0424346923828125 162.3726806640625 154.3205718994140625 150.39947509765625 162.7823638916015625 182.0869903564453125 180.0342559814453125 217.277557373046875 250.5223388671875 281.9560546875 -9999 -9999 272.805755615234375 -9999 -9999 
-9999 -9999 -9999 -9999 -9999 -9999 -9999 -9999 -9999 -9999 -9999 -9999 -9999 -9999 -9999 -9999 -9999 -9999 -9999 230.560760498046875 237.299072265625 229.8690185546875 214.7965850830078125 202.429840087890625 182.1252899169921875 182.1344451904296875 189.3169097900390625 198.5538787841796875 206.7569427490234375 211.01776123046875 213.205841064453125 214.6015625 221.7904815673828125 228.708343505859375 227.0450286865234375 226.4727630615234375 222.7771759033203125 215.0276947021484375 207.94415283203125 170.8031463623046875 188.91473388671875 180.0988311767578125 177.480865478515625 170.0355682373046875 159.3356781005859375 156.8278961181640625 156.786529541015625 147.0532073974609375 147.052978515625 147.0527496337890625 147.0527496337890625 147.9100341796875 151.5805816650390625 170.753631591796875 195.7110443115234375 204.556243896484375 211.05078125 232.7896575927734375 260.55072021484375 275.472076416015625 276.442779541015625 271.338104248046875 272.036285400390625 -9999 
-9999 -9999 -9999 -9999 -9999 -9999 -9999 -9999 -9999 -9999 -9999 -9999 -9999 -9999 -9999 -9999 -9999 -9999 -9999 -9999 244.835418701171875 243.5037689208984375 223.20867919921875 205.929443359375 193.8255767822265625 182.125518798828125 187.4159393310546875 198.4714202880859375 216.6414337158203125 221.2916259765625 -9999 238.412384033203125 241.825469970703125 245.5148162841796875 244.863739013671875 245.980499267578125 245.550201416015625 242.0623016357421875 234.6519012451171875 224.0425262451171875 211.9951629638671875 188.91473388671875 191.0578765869140625 180.8220672607421875 167.0807647705078125 165.585357666015625 157.082122802734375 149.9892425537109375 149.337005615234375 147.0525360107421875 147.0525360107421875 152.450103759765625 157.20745849609375 176.7176361083984375 170.753631591796875 199.7567901611328125 196.740997314453125 225.6485443115234375 253.533599853515625 261.8673095703125 266.363555908203125 266.363555908203125 275.878387451171875 281.152862548828125 
-9999 -9999 -9999 -9999 -9999 -9999 -9999 -9999 -9999 -9999 -9999 -9999 -9999 -9999 -9999 -9999 -9999 -9999 -9999 -9999 251.2190704345703125 223.20867919921875 236.09185791015625 216.1708221435546875 182.1257476806640625 189.6728973388671875 183.9881439208984375 189.8077392578125 204.61676025390625 218.9275360107421875 232.71771240234375 252.2005462646484375 259.044219970703125 261.63861083984375 261.237335205078125 269.72369384765625 272.497772216796875 269.070220947265625 263.27783203125 256.142181396484375 239.2971038818359375 225.0119476318359375 212.2083282470703125 197.104156494140625 181.46307373046875 180.0998077392578125 175.3605194091796875 167.7380523681640625 162.5615997314453125 149.9942474365234375 147.05230712890625 157.931365966796875 147.0520782470703125 161.30523681640625 187.726715087890625 191.1216888427734375 184.93121337890625 212.3887481689453125 263.7584228515625 284.84515380859375 276.625518798828125 282.05999755859375 -9999 -9999 
-9999 -9999 -9999 -9999 -9999 -9999 -9999 -9999 -9999 -9999 -9999 -9999 -9999 -9999 -9999 -9999 -9999 -9999 -9999 -9999 -9999 252.462860107421875 248.8657073974609375 230.3788299560546875 212.8062744140625 197.5300445556640625 186.1569061279296875 186.3987274169921875 194.9716949462890625 209.640289306640625 229.663787841796875 258.251739501953125 269.838287353515625 271.61322021484375 269.71343994140625 277.371002197265625 -9999 -9999 284.440887451171875 286.305816650390625 268.614166259765625 254.7839202880859375 236.7020263671875 215.77374267578125 202.665618896484375 195.639984130859375 189.8417510986328125 184.1247711181640625 182.11151123046875 174.1452484130859375 165.5069427490234375 147.0520782470703125 147.051849365234375 151.2921142578125 165.9724273681640625 178.4673614501953125 174.865936279296875 192.157012939453125 249.0296630859375 288.266571044921875 -9999 -9999 -9999 -9999 
-9999 -9999 -9999 -9999 -9999 -9999 -9999 -9999 -9999 -9999 -9999 -9999 -9999 -9999 -9999 -9999 -9999 -9999 -9999 -9999 -9999 -9999 -9999 236.9255828857421875 221.933135986328125 204.090606689453125 191.303558349609375 186.157135009765625 189.7585906982421875 199.578643798828125 226.456512451171875 252.588409423828125 274.3797607421875 281.224395751953125 277.979400634765625 -9999 -9999 -9999 -9999 289.3614501953125 279.207550048828125 272.118072509765625 254.704071044921875 235.0719146728515625 195.6402130126953125 210.5438690185546875 200.3498382568359375 191.4694366455078125 184.93646240234375 185.2093048095703125 177.0301971435546875 165.6682586669921875 171.1798858642578125 147.0516204833984375 152.9917755126953125 163.5402374267578125 166.7328338623046875 175.7003173828125 220.684051513671875 281.621673583984375 272.118927001953125 -9999 -9999 -9999 
-9999 -9999 -9999 -9999 -9999 -9999 -9999 -9999 -9999 -9999 -9999 -9999 -9999 -9999 -9999 -9999 -9999 -9999 -9999 -9999 -9999 -9999 -9999 -9999 224.67999267578125 209.6051483154296875 194.1673431396484375 189.0287628173828125 189.8821258544921875 193.9201202392578125 219.017242431640625 -9999 -9999 -9999 -9999 -9999 -9999 -9999 -9999 -9999 -9999 -9999 262.167022705078125 248.4272003173828125 238.6032562255859375 227.5135040283203125 214.18341064453125 203.6837921142578125 193.272918701171875 192.6677398681640625 184.528533935546875 167.8810577392578125 168.638275146484375 161.7299957275390625 142.7617645263671875 157.3278045654296875 143.502197265625 165.68609619140625 177.6629791259765625 220.1724090576171875 226.9656219482421875 -9999 -9999 -9999 
-9999 -9999 -9999 -9999 -9999 -9999 -9999 -9999 -9999 -9999 -9999 -9999 -9999 -9999 -9999 -9999 -9999 -9999 -9999 -9999 -9999 -9999 -9999 -9999 -9999 209.7959747314453125 201.5480499267578125 191.2714080810546875 189.88446044921875 -9999 -9999 -9999 -9999 -9999 -9999 -9999 -9999 -9999 -9999 -9999 -9999 -9999 259.77978515625 248.765777587890625 243.3901519775390625 235.11297607421875 225.223388671875 214.22412109375 205.4264068603515625 187.23028564453125 187.23028564453125 169.0631103515625 163.8861236572265625 157.484710693359375 142.76153564453125 143.5019683837890625 153.9868621826171875 160.9361724853515625 160.379364013671875 163.2830657958984375 172.4028167724609375 -9999 -9999 -9999 
-9999 -9999 -9999 -9999 -9999 -9999 -9999 -9999 -9999 -9999 -9999 -9999 -9999 -9999 -9999 -9999 -9999 -9999 -9999 -9999 -9999 -9999 -9999 -9999 -9999 -9999 -9999 -9999 -9999 -9999 -9999 -9999 -9999 -9999 -9999 -9999 -9999 -9999 -9999 -9999 -9999 -9999 251.175384521484375 246.0259857177734375 233.995147705078125 235.37969970703125 229.1824493408203125 221.9677581787109375 215.2403411865234375 203.1446533203125 190.3637847900390625 179.4218597412109375 156.328338623046875 156.3281097412109375 135.84283447265625 135.8426055908203125 146.062835693359375 150.9527130126953125 156.3211669921875 155.2680206298828125 -9999 -9999 -9999 -9999 
-9999 -9999 -9999 -9999 -9999 -9999 -9999 -9999 -9999 -9999 -9999 -9999 -9999 -9999 -9999 -9999 -9999 -9999 -9999 -9999 -9999 -9999 -9999 -9999 -9999 -9999 -9999 -9999 -9999 -9999 -9999 -9999 -9999 -9999 -9999 -9999 -9999 -9999 -9999 -9999 -9999 -9999 241.37420654296875 239.44927978515625 233.995147705078125 230.5980224609375 226.834686279296875 222.0216827392578125 220.590057373046875 208.87677001953125 179.422088623046875 188.2879791259765625 188.5570831298828125 176.0004730224609375 159.3112945556640625 145.9071044921875 135.842376708984375 134.80047607421875 147.242584228515625 151.0018157958984375 -9999 -9999 -9999 -9999 
-9999 -9999 -9999 -9999 -9999 -9999 -9999 -9999 -9999 -9999 -9999 -9999 -9999 -9999 -9999 -9999 -9999 -9999 -9999 -9999 -9999 -9999 -9999 -9999 -9999 -9999 -9999 -9999 -9999 -9999 -9999 -9999 -9999 -9999 -9999 -9999 -9999 -9999 -9999 -9999 -9999 -9999 232.9891204833984375 228.574951171875 228.603851318359375 225.6172943115234375 216.19158935546875 215.19158935546875 209.655914306640625 208.7066497802734375 195.339599609375 192.572021484375 199.769012451171875 193.1820831298828125 183.1264801025390625 165.086151123046875 149.8721466064453125 137.8328857421875 134.8002471923828125 149.761871337890625 -9999 -9999 -9999 -9999 
-9999 -9999 -9999 -9999 -9999 -9999 -9999 -9999 -9999 -9999 -9999 -9999 -9999 -9999 -9999 -9999 -9999 -9999 -9999 -9999 -9999 -9999 -9999 -9999 -9999 -9999 -9999 -9999 -9999 -9999 -9999 -9999 -9999 -9999 -9999 -9999 -9999 -9999 -9999 -9999 -9999 -9999 228.3493194580078125 225.3346710205078125 221.5417633056640625 221.61895751953125 218.2021331787109375 211.162872314453125 205.14837646484375 204.4467010498046875 198.55364990234375 189.0031890869140625 181.36358642578125 186.396942138671875 181.5774993896484375 173.480377197265625 160.2279052734375 146.1810150146484375 134.361053466796875 144.690338134765625 151.42822265625 -9999 -9999 -9999 
-9999 -9999 -9999 -9999 -9999 -9999 -9999 -9999 -9999 -9999 -9999 -9999 -9999 -9999 -9999 -9999 -9999 -9999 -9999 -9999 -9999 -9999 -9999 -9999 -9999 -9999 -9999 -9999 -9999 -9999 -9999 -9999 -9999 -9999 -9999 -9999 -9999 -9999 -9999 -9999 -9999 -9999 -9999 220.0608978271484375 218.9231109619140625 216.7006378173828125 211.7412872314453125 205.1486053466796875 211.7696685791015625 205.491455078125 201.5534210205078125 194.64129638671875 187.1146392822265625 181.3633575439453125 166.4653472900390625 172.7102508544921875 143.4630584716796875 143.46282958984375 135.197479248046875 134.3608245849609375 146.9878387451171875 -9999 -9999 -9999 
-9999 -9999 -9999 -9999 -9999 -9999 -9999 -9999 -9999 -9999 -9999 -9999 -9999 -9999 -9999 -9999 -9999 -9999 -9999 -9999 -9999 -9999 -9999 -9999 -9999 -9999 -9999 -9999 -9999 -9999 -9999 -9999 -9999 -9999 -9999 -9999 -9999 -9999 -9999 -9999 -9999 -9999 -9999 219.84222412109375 217.4774932861328125 215.9276885986328125 216.4679107666015625 220.39947509765625 225.5055999755859375 221.9917755126953125 213.17169189453125 210.330291748046875 206.2758026123046875 191.776611328125 177.6459808349609375 166.465118408203125 153.1188201904296875 151.9356689453125 146.21820068359375 131.11981201171875 -9999 -9999 -9999 -9999 
-9999 -9999 -9999 -9999 -9999 -9999 -9999 -9999 -9999 -9999 -9999 -9999 -9999 -9999 -9999 -9999 -9999 -9999 -9999 -9999 -9999 -9999 -9999 -9999 -9999 -9999 -9999 -9999 -9999 -9999 -9999 -9999 -9999 -9999 -9999 -9999 -9999 -9999 -9999 -9999 -9999 -9999 -9999 -9999 224.224884033203125 224.931488037109375 223.32159423828125 227.472381591796875 228.926544189453125 227.21063232421875 224.284881591796875 222.984466552734375 239.3845672607421875 237.862457275390625 209.7296905517578125 175.9413299560546875 159.93377685546875 149.9791717529296875 149.9791717529296875 -9999 -9999 -9999 -9999 -9999 
-9999 -9999 -9999 -9999 -9999 -9999 -9999 -9999 -9999 -9999 -9999 -9999 -9999 -9999 -9999 -9999 -9999 -9999 -9999 -9999 -9999 -9999 -9999 -9999 -9999 -9999 -9999 -9999 -9999 -9999 -9999 -9999 -9999 -9999 -9999 -9999 -9999 -9999 -9999 -9999 -9999 -9999 -9999 -9999 -9999 234.4119720458984375 237.4953155517578125 236.406585693359375 237.019622802734375 232.373809814453125 233.5766448974609375 232.0833892822265625 244.4901580810546875 -9999 256.986358642578125 203.6722564697265625 165.069580078125 -9999 -9999 -9999 -9999 -9999 -9999 -9999 
-9999 -9999 -9999 -9999 -9999 -9999 -9999 -9999 -9999 -9999 -9999 -9999 -9999 -9999 -9999 -9999 -9999 -9999 -9999 -9999 -9999 -9999 -9999 -9999 -9999 -9999 -9999 -9999 -9999 -9999 -9999 -9999 -9999 -9999 -9999 -9999 -9999 -9999 -9999 -9999 -9999 -9999 -9999 -9999 -9999 -9999 251.936553955078125 247.4336090087890625 246.1421661376953125 244.0196380615234375 232.373809814453125 242.5931549072265625 -9999 -9999 -9999 -9999 -9999 -9999 -9999 -9999 -9999 -9999 -9999 -9999 
-9999 -9999 -9999 -9999 -9999 -9999 -9999 -9999 -9999 -9999 -9999 -9999 -9999 -9999 -9999 -9999 -9999 -9999 -9999 -9999 -9999 -9999 -9999 -9999 -9999 -9999 -9999 -9999 -9999 -9999 -9999 -9999 -9999 -9999 -9999 -9999 -9999 -9999 -9999 -9999 -9999 -9999 -9999 -9999 -9999 -9999 -9999 263.47564697265625 258.400665283203125 253.5265045166015625 248.8899383544921875 -9999 -9999 -9999 -9999 -9999 -9999 -9999 -9999 -9999 -9999 -9999 -9999 -9999 
-9999 -9999 -9999 -9999 -9999 -9999 -9999 -9999 -9999 -9999 -9999 -9999 -9999 -9999 -9999 -9999 -9999 -9999 -9999 -9999 -9999 -9999 -9999 -9999 -9999 -9999 -9999 -9999 -9999 -9999 -9999 -9999 -9999 -9999 -9999 -9999 -9999 -9999 -9999 -9999 -9999 -9999 -9999 -9999 -9999 -9999 -9999 -9999 267.041046142578125 260.848907470703125 253.994537353515625 -9999 -9999 -9999 -9999 -9999 -9999 -9999 -9999 -9999 -9999 -9999 -9999 -9999 
-9999 -9999 -9999 -9999 -9999 -9999 -9999 -9999 -9999 -9999 -9999 -9999 -9999 -9999 -9999 -9999 -9999 -9999 -9999 -9999 -9999 -9999 -9999 -9999 -9999 -9999 -9999 -9999 -9999 -9999 -9999 -9999 -9999 -9999 -9999 -9999 -9999 -9999 -9999 -9999 -9999 -9999 -9999 -9999 -9999 -9999 -9999 -9999 -9999 -9999 261.130157470703125 -9999 -9999 -9999 -9999 -9999 -9999 -9999 -9999 -9999 -9999 -9999 -9999 -9999 
