ncols        119
nrows        32
xllcorner    352736
yllcorner    6858344
cellsize     32.000000000000
NODATA_value  -9999
1.675573425292968750e+02 1.675041961669921875e+02 1.674774322509765625e+02 1.674389648437500000e+02 1.674227752685546875e+02 1.673522338867187500e+02 1.673027648925781250e+02 1.672876281738281250e+02 1.672519989013671875e+02 1.671788787841796875e+02 1.669786529541015625e+02 1.668247070312500000e+02 1.667579193115234375e+02 1.667121582031250000e+02 1.664752044677734375e+02 1.662497100830078125e+02 1.659101257324218750e+02 1.655886688232421875e+02 1.657115631103515625e+02 1.660632171630859375e+02 1.660196075439453125e+02 1.657425079345703125e+02 1.681963958740234375e+02 1.702418060302734375e+02 1.686029510498046875e+02 1.667283477783203125e+02 1.666472015380859375e+02 1.668432006835937500e+02 1.669459838867187500e+02 1.669396362304687500e+02 1.668692474365234375e+02 1.668187713623046875e+02 1.669898376464843750e+02 1.675139160156250000e+02 1.677603759765625000e+02 1.679069061279296875e+02 1.679882354736328125e+02 1.679356536865234375e+02 1.678536529541015625e+02 1.679521026611328125e+02 1.681048736572265625e+02 1.681682586669921875e+02 1.683041229248046875e+02 1.684983825683593750e+02 1.687489013671875000e+02 1.689662322998046875e+02 1.690804748535156250e+02 1.700339202880859375e+02 1.726812133789062500e+02 1.757029876708984375e+02 1.771013183593750000e+02 1.758855438232421875e+02 1.757540588378906250e+02 1.770581054687500000e+02 1.773553314208984375e+02 1.772710418701171875e+02 1.775972137451171875e+02 1.777700195312500000e+02 1.783688354492187500e+02 1.785951843261718750e+02 1.781877288818359375e+02 1.753088836669921875e+02 1.729541778564453125e+02 1.743374176025390625e+02 1.756679534912109375e+02 1.789934082031250000e+02 1.783232421875000000e+02 1.749252624511718750e+02 1.713615112304687500e+02 1.691405334472656250e+02 1.676428985595703125e+02 1.691936035156250000e+02 1.744782562255859375e+02 1.815635833740234375e+02 1.819583587646484375e+02 1.783658599853515625e+02 1.732916259765625000e+02 1.690983276367187500e+02 1.639340057373046875e+02 1.603875885009765625e+02 1.574260864257812500e+02 1.552422485351562500e+02 1.555956268310546875e+02 1.559423675537109375e+02 1.562397155761718750e+02 1.569583435058593750e+02 1.571750946044921875e+02 1.568346862792968750e+02 1.563870697021484375e+02 1.558752746582031250e+02 1.550474395751953125e+02 1.527413635253906250e+02 1.531944427490234375e+02 1.547499542236328125e+02 1.555072021484375000e+02 1.571719207763671875e+02 1.578285827636718750e+02 1.586306610107421875e+02 1.559602203369140625e+02 1.502571258544921875e+02 1.485437927246093750e+02 1.483175354003906250e+02 1.479524688720703125e+02 1.479934234619140625e+02 1.481537475585937500e+02 1.488132476806640625e+02 1.526444702148437500e+02 1.626967926025390625e+02 1.696824493408203125e+02 1.705300445556640625e+02 1.691584930419921875e+02 1.679909820556640625e+02 1.676997528076171875e+02 1.679063262939453125e+02 1.668447418212890625e+02 1.654114990234375000e+02 1.640587158203125000e+02 1.610416107177734375e+02 1.557759704589843750e+02
1.672789001464843750e+02 1.672528686523437500e+02 1.672208251953125000e+02 1.672344207763671875e+02 1.672628631591796875e+02 1.671999053955078125e+02 1.671493072509765625e+02 1.671192932128906250e+02 1.670700073242187500e+02 1.669347991943359375e+02 1.668059539794921875e+02 1.667307739257812500e+02 1.666220092773437500e+02 1.665596771240234375e+02 1.662686614990234375e+02 1.658943481445312500e+02 1.656312866210937500e+02 1.653126068115234375e+02 1.653446960449218750e+02 1.655364379882812500e+02 1.655163574218750000e+02 1.656199951171875000e+02 1.683962707519531250e+02 1.705997619628906250e+02 1.690036926269531250e+02 1.669873962402343750e+02 1.667213439941406250e+02 1.668617553710937500e+02 1.669405975341796875e+02 1.668021850585937500e+02 1.668391418457031250e+02 1.668168640136718750e+02 1.671548767089843750e+02 1.674959106445312500e+02 1.676922607421875000e+02 1.678662872314453125e+02 1.679154357910156250e+02 1.678586730957031250e+02 1.681064605712890625e+02 1.682731018066406250e+02 1.682888793945312500e+02 1.683098144531250000e+02 1.683524932861328125e+02 1.684781494140625000e+02 1.687441711425781250e+02 1.690128173828125000e+02 1.691642913818359375e+02 1.693013305664062500e+02 1.699894104003906250e+02 1.718272552490234375e+02 1.740082855224609375e+02 1.742507019042968750e+02 1.764145507812500000e+02 1.788258972167968750e+02 1.792118530273437500e+02 1.794267730712890625e+02 1.798275756835937500e+02 1.804613952636718750e+02 1.790047454833984375e+02 1.784621124267578125e+02 1.785160827636718750e+02 1.769756011962890625e+02 1.746518554687500000e+02 1.736530761718750000e+02 1.749717254638671875e+02 1.783161773681640625e+02 1.796122894287109375e+02 1.785070343017578125e+02 1.727700805664062500e+02 1.694508361816406250e+02 1.691001586914062500e+02 1.686138153076171875e+02 1.733994140625000000e+02 1.806774597167968750e+02 1.841339721679687500e+02 1.828128814697265625e+02 1.784819183349609375e+02 1.744552612304687500e+02 1.679217987060546875e+02 1.629229888916015625e+02 1.598912963867187500e+02 1.564192962646484375e+02 1.555130004882812500e+02 1.552600402832031250e+02 1.553516387939453125e+02 1.556921386718750000e+02 1.556375732421875000e+02 1.554537811279296875e+02 1.553093414306640625e+02 1.553392181396484375e+02 1.546226196289062500e+02 1.531196441650390625e+02 1.543240814208984375e+02 1.549098968505859375e+02 1.557058105468750000e+02 1.568294525146484375e+02 1.570366516113281250e+02 1.572136077880859375e+02 1.569326171875000000e+02 1.539612731933593750e+02 1.522157440185546875e+02 1.507095642089843750e+02 1.483718261718750000e+02 1.481207122802734375e+02 1.480499114990234375e+02 1.481581878662109375e+02 1.493931732177734375e+02 1.557448883056640625e+02 1.653283386230468750e+02 1.698883361816406250e+02 1.742980346679687500e+02 1.745646362304687500e+02 1.712559051513671875e+02 1.686883697509765625e+02 1.657965545654296875e+02 1.625480194091796875e+02 1.594946441650390625e+02 1.569385833740234375e+02 1.537980957031250000e+02
1.670654602050781250e+02 1.670017547607421875e+02 1.669612121582031250e+02 1.669507751464843750e+02 1.669702911376953125e+02 1.669762115478515625e+02 1.669119110107421875e+02 1.668535461425781250e+02 1.667733917236328125e+02 1.666801910400390625e+02 1.666339721679687500e+02 1.665289001464843750e+02 1.663876342773437500e+02 1.661728668212890625e+02 1.659513397216796875e+02 1.655610198974609375e+02 1.652056579589843750e+02 1.651305541992187500e+02 1.651385498046875000e+02 1.651640930175781250e+02 1.652129821777343750e+02 1.655066375732421875e+02 1.671535644531250000e+02 1.691371307373046875e+02 1.683507690429687500e+02 1.669812164306640625e+02 1.668264465332031250e+02 1.672418975830078125e+02 1.674566497802734375e+02 1.667300720214843750e+02 1.666089324951171875e+02 1.667858276367187500e+02 1.672069702148437500e+02 1.674746704101562500e+02 1.676586608886718750e+02 1.677008056640625000e+02 1.676499023437500000e+02 1.677658538818359375e+02 1.681877746582031250e+02 1.686778564453125000e+02 1.685446929931640625e+02 1.684360504150390625e+02 1.684353790283203125e+02 1.685250244140625000e+02 1.687886505126953125e+02 1.690420837402343750e+02 1.693878021240234375e+02 1.696385803222656250e+02 1.696408538818359375e+02 1.709049835205078125e+02 1.733193969726562500e+02 1.744976654052734375e+02 1.773041229248046875e+02 1.800286102294921875e+02 1.799629821777343750e+02 1.797133941650390625e+02 1.798363189697265625e+02 1.808170928955078125e+02 1.793728027343750000e+02 1.789736480712890625e+02 1.790073547363281250e+02 1.786609954833984375e+02 1.777194671630859375e+02 1.763604431152343750e+02 1.742032928466796875e+02 1.762951965332031250e+02 1.793951568603515625e+02 1.796000671386718750e+02 1.748542938232421875e+02 1.712302551269531250e+02 1.710357360839843750e+02 1.702219696044921875e+02 1.724279022216796875e+02 1.782285919189453125e+02 1.836332092285156250e+02 1.831554260253906250e+02 1.799590911865234375e+02 1.778826904296875000e+02 1.722576599121093750e+02 1.644890899658203125e+02 1.598730773925781250e+02 1.571859588623046875e+02 1.560170593261718750e+02 1.555515136718750000e+02 1.547926025390625000e+02 1.548286743164062500e+02 1.548740997314453125e+02 1.546737365722656250e+02 1.541411590576171875e+02 1.539804534912109375e+02 1.531138610839843750e+02 1.534870452880859375e+02 1.549570007324218750e+02 1.553135070800781250e+02 1.562992858886718750e+02 1.578484191894531250e+02 1.581467132568359375e+02 1.581314697265625000e+02 1.593667755126953125e+02 1.589285736083984375e+02 1.586011962890625000e+02 1.567780303955078125e+02 1.512184143066406250e+02 1.492422485351562500e+02 1.485136413574218750e+02 1.482404785156250000e+02 1.483447723388671875e+02 1.500164489746093750e+02 1.558890380859375000e+02 1.644257659912109375e+02 1.727312011718750000e+02 1.762610931396484375e+02 1.747692565917968750e+02 1.737630920410156250e+02 1.737283020019531250e+02 1.718642730712890625e+02 1.652520446777343750e+02 1.581090393066406250e+02 1.535464935302734375e+02
1.669281311035156250e+02 1.668433380126953125e+02 1.667742614746093750e+02 1.667068786621093750e+02 1.666583557128906250e+02 1.666617126464843750e+02 1.666440582275390625e+02 1.666064910888671875e+02 1.665026855468750000e+02 1.664652252197265625e+02 1.664120788574218750e+02 1.663354187011718750e+02 1.661633758544921875e+02 1.657987976074218750e+02 1.655536804199218750e+02 1.652698516845703125e+02 1.650505981445312500e+02 1.649886322021484375e+02 1.650335998535156250e+02 1.650199279785156250e+02 1.654627227783203125e+02 1.664685821533203125e+02 1.673853912353515625e+02 1.685665435791015625e+02 1.682462158203125000e+02 1.673034362792968750e+02 1.669845123291015625e+02 1.674071960449218750e+02 1.674339752197265625e+02 1.665568237304687500e+02 1.663206481933593750e+02 1.666907501220703125e+02 1.670692291259765625e+02 1.672893218994140625e+02 1.674213104248046875e+02 1.674647979736328125e+02 1.676696319580078125e+02 1.680886688232421875e+02 1.687515258789062500e+02 1.699372100830078125e+02 1.698749847412109375e+02 1.687119903564453125e+02 1.685781097412109375e+02 1.687099914550781250e+02 1.688931427001953125e+02 1.690991058349609375e+02 1.695197448730468750e+02 1.697718048095703125e+02 1.696443786621093750e+02 1.706198883056640625e+02 1.731643218994140625e+02 1.753401489257812500e+02 1.774162902832031250e+02 1.798985137939453125e+02 1.807145080566406250e+02 1.797949523925781250e+02 1.796234741210937500e+02 1.799947357177734375e+02 1.793517913818359375e+02 1.783481903076171875e+02 1.784442443847656250e+02 1.792041931152343750e+02 1.794077758789062500e+02 1.792622680664062500e+02 1.774542694091796875e+02 1.762364807128906250e+02 1.760299682617187500e+02 1.754933624267578125e+02 1.740388488769531250e+02 1.721617889404296875e+02 1.707720031738281250e+02 1.709172058105468750e+02 1.718466949462890625e+02 1.775300598144531250e+02 1.840862579345703125e+02 1.831889190673828125e+02 1.794345245361328125e+02 1.765462646484375000e+02 1.708421783447265625e+02 1.633987579345703125e+02 1.592389678955078125e+02 1.586823577880859375e+02 1.586531372070312500e+02 1.575247344970703125e+02 1.554190216064453125e+02 1.557622375488281250e+02 1.559810180664062500e+02 1.547083129882812500e+02 1.539626770019531250e+02 1.531377716064453125e+02 1.529548797607421875e+02 1.543498992919921875e+02 1.562525329589843750e+02 1.574351501464843750e+02 1.582421264648437500e+02 1.621597137451171875e+02 1.656950378417968750e+02 1.636164550781250000e+02 1.648364868164062500e+02 1.663521575927734375e+02 1.647937774658203125e+02 1.625652160644531250e+02 1.560722045898437500e+02 1.518712463378906250e+02 1.502265167236328125e+02 1.494556884765625000e+02 1.492187347412109375e+02 1.501813964843750000e+02 1.505332946777343750e+02 1.559265441894531250e+02 1.653115692138671875e+02 1.727665100097656250e+02 1.734994506835937500e+02 1.736846618652343750e+02 1.765017547607421875e+02 1.767649688720703125e+02 1.692755432128906250e+02 1.591015777587890625e+02 1.542559814453125000e+02
1.667906494140625000e+02 1.666873931884765625e+02 1.665529327392578125e+02 1.664520721435546875e+02 1.664139404296875000e+02 1.664316101074218750e+02 1.665023956298828125e+02 1.665182647705078125e+02 1.664410095214843750e+02 1.663742523193359375e+02 1.663374481201171875e+02 1.662353515625000000e+02 1.659561004638671875e+02 1.655438842773437500e+02 1.652098693847656250e+02 1.651054077148437500e+02 1.649718170166015625e+02 1.649029998779296875e+02 1.648841400146484375e+02 1.648758239746093750e+02 1.655060882568359375e+02 1.672991180419921875e+02 1.685930786132812500e+02 1.687980041503906250e+02 1.680655822753906250e+02 1.677789611816406250e+02 1.676102294921875000e+02 1.671354217529296875e+02 1.667083129882812500e+02 1.663175201416015625e+02 1.661816101074218750e+02 1.664945373535156250e+02 1.667310180664062500e+02 1.670829315185546875e+02 1.674136047363281250e+02 1.676618041992187500e+02 1.678169708251953125e+02 1.684990539550781250e+02 1.698753509521484375e+02 1.715003204345703125e+02 1.712298126220703125e+02 1.689127655029296875e+02 1.687165069580078125e+02 1.688561859130859375e+02 1.689050598144531250e+02 1.691152648925781250e+02 1.694232788085937500e+02 1.696805419921875000e+02 1.695829467773437500e+02 1.698802947998046875e+02 1.713903045654296875e+02 1.734561462402343750e+02 1.756868438720703125e+02 1.782458801269531250e+02 1.800943298339843750e+02 1.797181396484375000e+02 1.792450714111328125e+02 1.792497863769531250e+02 1.783405303955078125e+02 1.776011199951171875e+02 1.776781768798828125e+02 1.790228576660156250e+02 1.796373596191406250e+02 1.795403747558593750e+02 1.788730468750000000e+02 1.768835601806640625e+02 1.745829162597656250e+02 1.728229827880859375e+02 1.713609771728515625e+02 1.706954956054687500e+02 1.700530853271484375e+02 1.701317749023437500e+02 1.712362670898437500e+02 1.753041534423828125e+02 1.816556091308593750e+02 1.818117523193359375e+02 1.760498504638671875e+02 1.705100097656250000e+02 1.658573455810546875e+02 1.613411407470703125e+02 1.593654785156250000e+02 1.621909179687500000e+02 1.627591857910156250e+02 1.608412322998046875e+02 1.570715484619140625e+02 1.589023284912109375e+02 1.607614288330078125e+02 1.586594848632812500e+02 1.575578002929687500e+02 1.562534942626953125e+02 1.549004211425781250e+02 1.561999969482421875e+02 1.598040466308593750e+02 1.610986022949218750e+02 1.608555145263671875e+02 1.650332031250000000e+02 1.707130279541015625e+02 1.690919647216796875e+02 1.692477416992187500e+02 1.732051086425781250e+02 1.725523986816406250e+02 1.698300476074218750e+02 1.625152435302734375e+02 1.559655609130859375e+02 1.528865814208984375e+02 1.519833526611328125e+02 1.514167327880859375e+02 1.522831115722656250e+02 1.511022186279296875e+02 1.505133056640625000e+02 1.558815307617187500e+02 1.636676483154296875e+02 1.671275329589843750e+02 1.693485260009765625e+02 1.718098449707031250e+02 1.733052520751953125e+02 1.683234710693359375e+02 1.591917724609375000e+02 1.549842987060546875e+02
1.666124267578125000e+02 1.665333404541015625e+02 1.664134368896484375e+02 1.663083496093750000e+02 1.662623748779296875e+02 1.662239837646484375e+02 1.663194580078125000e+02 1.663750457763671875e+02 1.664256286621093750e+02 1.663245391845703125e+02 1.662399291992187500e+02 1.661269836425781250e+02 1.658402557373046875e+02 1.653561248779296875e+02 1.650583496093750000e+02 1.649596252441406250e+02 1.648548278808593750e+02 1.648748168945312500e+02 1.649239807128906250e+02 1.647012023925781250e+02 1.651567535400390625e+02 1.680281524658203125e+02 1.699700317382812500e+02 1.689705047607421875e+02 1.678860626220703125e+02 1.684503936767578125e+02 1.686613464355468750e+02 1.669472351074218750e+02 1.663607330322265625e+02 1.660929718017578125e+02 1.661635894775390625e+02 1.663749694824218750e+02 1.668493347167968750e+02 1.672794189453125000e+02 1.675988922119140625e+02 1.678837432861328125e+02 1.682752532958984375e+02 1.685422973632812500e+02 1.698510284423828125e+02 1.706093750000000000e+02 1.698453369140625000e+02 1.687263183593750000e+02 1.687447967529296875e+02 1.689117279052734375e+02 1.689582366943359375e+02 1.690965270996093750e+02 1.693867340087890625e+02 1.696727752685546875e+02 1.696323547363281250e+02 1.698686218261718750e+02 1.710472869873046875e+02 1.730205078125000000e+02 1.746232757568359375e+02 1.758514862060546875e+02 1.777819061279296875e+02 1.782077331542968750e+02 1.788124389648437500e+02 1.785414581298828125e+02 1.775145416259765625e+02 1.774530944824218750e+02 1.774595336914062500e+02 1.778730621337890625e+02 1.787545776367187500e+02 1.790389556884765625e+02 1.782929840087890625e+02 1.767511291503906250e+02 1.763635559082031250e+02 1.753880920410156250e+02 1.733432922363281250e+02 1.726709747314453125e+02 1.714258422851562500e+02 1.702387847900390625e+02 1.701276550292968750e+02 1.715329589843750000e+02 1.764785003662109375e+02 1.770552368164062500e+02 1.709873352050781250e+02 1.652061309814453125e+02 1.629276885986328125e+02 1.620000610351562500e+02 1.627394409179687500e+02 1.653009643554687500e+02 1.655175628662109375e+02 1.628660736083984375e+02 1.587695770263671875e+02 1.599294281005859375e+02 1.648311767578125000e+02 1.637884521484375000e+02 1.619290008544921875e+02 1.603704528808593750e+02 1.575303344726562500e+02 1.581636962890625000e+02 1.623422698974609375e+02 1.626051940917968750e+02 1.623951263427734375e+02 1.648109588623046875e+02 1.702878570556640625e+02 1.725091400146484375e+02 1.728516082763671875e+02 1.771273651123046875e+02 1.778907623291015625e+02 1.773612365722656250e+02 1.695494537353515625e+02 1.617859954833984375e+02 1.568070373535156250e+02 1.551375579833984375e+02 1.538399200439453125e+02 1.520838775634765625e+02 1.506500854492187500e+02 1.486298065185546875e+02 1.494875335693359375e+02 1.529881591796875000e+02 1.576977081298828125e+02 1.603693389892578125e+02 1.616579132080078125e+02 1.640926208496093750e+02 1.645504455566406250e+02 1.584334564208984375e+02 1.549129943847656250e+02
1.666602020263671875e+02 1.665581207275390625e+02 1.663731994628906250e+02 1.662316436767578125e+02 1.661813201904296875e+02 1.661542358398437500e+02 1.662806091308593750e+02 1.663956756591796875e+02 1.664042053222656250e+02 1.662922210693359375e+02 1.661184082031250000e+02 1.659649505615234375e+02 1.655949096679687500e+02 1.650995941162109375e+02 1.649533538818359375e+02 1.648035125732421875e+02 1.647179260253906250e+02 1.646544952392578125e+02 1.647981109619140625e+02 1.646859436035156250e+02 1.661852569580078125e+02 1.705123138427734375e+02 1.710170440673828125e+02 1.693934936523437500e+02 1.688218688964843750e+02 1.685966796875000000e+02 1.684723510742187500e+02 1.663858489990234375e+02 1.660174255371093750e+02 1.659451446533203125e+02 1.664424896240234375e+02 1.667111206054687500e+02 1.671649169921875000e+02 1.675468292236328125e+02 1.676084442138671875e+02 1.680147552490234375e+02 1.684773559570312500e+02 1.691016082763671875e+02 1.695693206787109375e+02 1.692597351074218750e+02 1.688655853271484375e+02 1.687155761718750000e+02 1.687716217041015625e+02 1.689427947998046875e+02 1.690186614990234375e+02 1.691222839355468750e+02 1.693475189208984375e+02 1.695991821289062500e+02 1.697060394287109375e+02 1.712008666992187500e+02 1.735722808837890625e+02 1.752006835937500000e+02 1.759144744873046875e+02 1.764628448486328125e+02 1.771615753173828125e+02 1.774297637939453125e+02 1.789407958984375000e+02 1.786778869628906250e+02 1.774865722656250000e+02 1.775157775878906250e+02 1.774422149658203125e+02 1.773956298828125000e+02 1.776697998046875000e+02 1.783768615722656250e+02 1.779915313720703125e+02 1.773218688964843750e+02 1.787703094482421875e+02 1.789208679199218750e+02 1.781464691162109375e+02 1.787073516845703125e+02 1.756333770751953125e+02 1.729271392822265625e+02 1.705489196777343750e+02 1.697158050537109375e+02 1.713139495849609375e+02 1.713521423339843750e+02 1.682840270996093750e+02 1.651132965087890625e+02 1.653681182861328125e+02 1.669244689941406250e+02 1.682729339599609375e+02 1.678627777099609375e+02 1.662911376953125000e+02 1.639886932373046875e+02 1.613587951660156250e+02 1.593179779052734375e+02 1.644280395507812500e+02 1.663024902343750000e+02 1.648506469726562500e+02 1.648525543212890625e+02 1.621150665283203125e+02 1.598078460693359375e+02 1.627075347900390625e+02 1.645946044921875000e+02 1.648245391845703125e+02 1.656038970947265625e+02 1.695093383789062500e+02 1.753357391357421875e+02 1.779252624511718750e+02 1.808320159912109375e+02 1.820471801757812500e+02 1.824150695800781250e+02 1.768104248046875000e+02 1.704720611572265625e+02 1.658634185791015625e+02 1.607583007812500000e+02 1.570817871093750000e+02 1.544278259277343750e+02 1.505998382568359375e+02 1.495736541748046875e+02 1.491160736083984375e+02 1.485438995361328125e+02 1.503033752441406250e+02 1.528958740234375000e+02 1.547038269042968750e+02 1.566045532226562500e+02 1.577495269775390625e+02 1.549811248779296875e+02 1.543108367919921875e+02
1.665352783203125000e+02 1.665068511962890625e+02 1.664552307128906250e+02 1.663778991699218750e+02 1.662732391357421875e+02 1.662333831787109375e+02 1.663807220458984375e+02 1.665509643554687500e+02 1.665594940185546875e+02 1.663993072509765625e+02 1.660548248291015625e+02 1.657908630371093750e+02 1.654541168212890625e+02 1.649087982177734375e+02 1.647326202392578125e+02 1.645991058349609375e+02 1.645464477539062500e+02 1.644906921386718750e+02 1.645257873535156250e+02 1.645793914794921875e+02 1.677362670898437500e+02 1.719763641357421875e+02 1.708306427001953125e+02 1.695094146728515625e+02 1.696642456054687500e+02 1.679966735839843750e+02 1.666313629150390625e+02 1.658806610107421875e+02 1.657227478027343750e+02 1.664786682128906250e+02 1.669715881347656250e+02 1.668775939941406250e+02 1.672939910888671875e+02 1.676702575683593750e+02 1.677927703857421875e+02 1.679556884765625000e+02 1.683719635009765625e+02 1.691213378906250000e+02 1.693336486816406250e+02 1.689379119873046875e+02 1.688488006591796875e+02 1.688043365478515625e+02 1.689531402587890625e+02 1.690987548828125000e+02 1.691582489013671875e+02 1.692211914062500000e+02 1.694080810546875000e+02 1.695704803466796875e+02 1.699450225830078125e+02 1.736314086914062500e+02 1.757873992919921875e+02 1.758489990234375000e+02 1.759251556396484375e+02 1.763336029052734375e+02 1.770542755126953125e+02 1.787675781250000000e+02 1.799354248046875000e+02 1.795330810546875000e+02 1.779772644042968750e+02 1.774495849609375000e+02 1.772790679931640625e+02 1.772799224853515625e+02 1.773133087158203125e+02 1.775782318115234375e+02 1.776380004882812500e+02 1.780953674316406250e+02 1.800312805175781250e+02 1.808229522705078125e+02 1.817326202392578125e+02 1.821044464111328125e+02 1.790479736328125000e+02 1.755107421875000000e+02 1.727729949951171875e+02 1.699321746826171875e+02 1.688074340820312500e+02 1.699132537841796875e+02 1.720142974853515625e+02 1.693968658447265625e+02 1.683183288574218750e+02 1.698080902099609375e+02 1.710445251464843750e+02 1.702404479980468750e+02 1.684565124511718750e+02 1.666649322509765625e+02 1.643647460937500000e+02 1.609882812500000000e+02 1.603900604248046875e+02 1.643099060058593750e+02 1.658668365478515625e+02 1.677779693603515625e+02 1.665255584716796875e+02 1.625563201904296875e+02 1.617725524902343750e+02 1.653660888671875000e+02 1.665103454589843750e+02 1.674571990966796875e+02 1.696210327148437500e+02 1.745786590576171875e+02 1.805206909179687500e+02 1.832389068603515625e+02 1.841310119628906250e+02 1.845328674316406250e+02 1.819397583007812500e+02 1.787091827392578125e+02 1.751152496337890625e+02 1.684922027587890625e+02 1.612812652587890625e+02 1.581764526367187500e+02 1.537555541992187500e+02 1.518797302246093750e+02 1.527561340332031250e+02 1.503577575683593750e+02 1.487456054687500000e+02 1.486484985351562500e+02 1.498884429931640625e+02 1.519140930175781250e+02 1.530782623291015625e+02 1.526630859375000000e+02 1.544554138183593750e+02
1.664513549804687500e+02 1.664490051269531250e+02 1.664921112060546875e+02 1.664726257324218750e+02 1.663507385253906250e+02 1.662061614990234375e+02 1.661846923828125000e+02 1.661667785644531250e+02 1.659821472167968750e+02 1.658208160400390625e+02 1.655733489990234375e+02 1.652337799072265625e+02 1.649255065917968750e+02 1.645383300781250000e+02 1.644022979736328125e+02 1.643895568847656250e+02 1.642993774414062500e+02 1.642632141113281250e+02 1.642095336914062500e+02 1.643438720703125000e+02 1.672229919433593750e+02 1.703908386230468750e+02 1.691008911132812500e+02 1.686884155273437500e+02 1.692383117675781250e+02 1.672859954833984375e+02 1.659879913330078125e+02 1.656690826416015625e+02 1.655240936279296875e+02 1.659962768554687500e+02 1.662933654785156250e+02 1.675055999755859375e+02 1.681260223388671875e+02 1.684294433593750000e+02 1.682663269042968750e+02 1.681963195800781250e+02 1.686009063720703125e+02 1.694682617187500000e+02 1.691602172851562500e+02 1.688518829345703125e+02 1.689036102294921875e+02 1.692887725830078125e+02 1.699042358398437500e+02 1.700998687744140625e+02 1.702257537841796875e+02 1.701885986328125000e+02 1.697874603271484375e+02 1.697774353027343750e+02 1.699514160156250000e+02 1.729664459228515625e+02 1.757369079589843750e+02 1.749118957519531250e+02 1.749109649658203125e+02 1.746419067382812500e+02 1.759650573730468750e+02 1.790147399902343750e+02 1.802517089843750000e+02 1.796770477294921875e+02 1.782823028564453125e+02 1.774845886230468750e+02 1.773203735351562500e+02 1.776316070556640625e+02 1.772610015869140625e+02 1.773720855712890625e+02 1.773529052734375000e+02 1.784419403076171875e+02 1.819571838378906250e+02 1.839777069091796875e+02 1.837773437500000000e+02 1.843987121582031250e+02 1.817183685302734375e+02 1.767960968017578125e+02 1.737584686279296875e+02 1.702134552001953125e+02 1.690788116455078125e+02 1.701896972656250000e+02 1.744005126953125000e+02 1.743321990966796875e+02 1.714583435058593750e+02 1.722661743164062500e+02 1.729528656005859375e+02 1.714223480224609375e+02 1.700991210937500000e+02 1.685276031494140625e+02 1.655936126708984375e+02 1.636147308349609375e+02 1.614092407226562500e+02 1.608540344238281250e+02 1.647404174804687500e+02 1.682160186767578125e+02 1.679992065429687500e+02 1.636302795410156250e+02 1.613164825439453125e+02 1.642257537841796875e+02 1.674663543701171875e+02 1.677037048339843750e+02 1.693074035644531250e+02 1.720018310546875000e+02 1.774856719970703125e+02 1.826707763671875000e+02 1.848749542236328125e+02 1.852015075683593750e+02 1.837847595214843750e+02 1.824835968017578125e+02 1.800770263671875000e+02 1.751904144287109375e+02 1.668841094970703125e+02 1.615349731445312500e+02 1.567543182373046875e+02 1.520312652587890625e+02 1.520066986083984375e+02 1.534370727539062500e+02 1.527697143554687500e+02 1.502541351318359375e+02 1.485900726318359375e+02 1.495167846679687500e+02 1.510111999511718750e+02 1.525103149414062500e+02 1.547102203369140625e+02
1.664467163085937500e+02 1.661401214599609375e+02 1.659045715332031250e+02 1.657418365478515625e+02 1.654934539794921875e+02 1.652248840332031250e+02 1.650875396728515625e+02 1.649987335205078125e+02 1.648968505859375000e+02 1.648073425292968750e+02 1.647326202392578125e+02 1.645849914550781250e+02 1.642944793701171875e+02 1.640207824707031250e+02 1.639842529296875000e+02 1.640425415039062500e+02 1.638919067382812500e+02 1.637401428222656250e+02 1.638904418945312500e+02 1.640476074218750000e+02 1.654415130615234375e+02 1.676074218750000000e+02 1.675686950683593750e+02 1.684726562500000000e+02 1.690097351074218750e+02 1.678020172119140625e+02 1.662615356445312500e+02 1.656860046386718750e+02 1.654270935058593750e+02 1.656398315429687500e+02 1.659248657226562500e+02 1.668690032958984375e+02 1.708785247802734375e+02 1.742681121826171875e+02 1.724248352050781250e+02 1.695075988769531250e+02 1.686584167480468750e+02 1.688037872314453125e+02 1.687747497558593750e+02 1.688944244384765625e+02 1.697343750000000000e+02 1.707191772460937500e+02 1.716059875488281250e+02 1.723689270019531250e+02 1.742749633789062500e+02 1.744770965576171875e+02 1.718133544921875000e+02 1.703445434570312500e+02 1.701162719726562500e+02 1.707596740722656250e+02 1.725035095214843750e+02 1.726000518798828125e+02 1.737034606933593750e+02 1.741139526367187500e+02 1.755417633056640625e+02 1.790382385253906250e+02 1.795915679931640625e+02 1.776950378417968750e+02 1.770233001708984375e+02 1.768586578369140625e+02 1.771144104003906250e+02 1.776059570312500000e+02 1.771673736572265625e+02 1.773004913330078125e+02 1.774408416748046875e+02 1.795309143066406250e+02 1.831001739501953125e+02 1.844441070556640625e+02 1.844696197509765625e+02 1.848942565917968750e+02 1.824751586914062500e+02 1.767947845458984375e+02 1.721529998779296875e+02 1.696660156250000000e+02 1.702173767089843750e+02 1.720379791259765625e+02 1.742852783203125000e+02 1.738526306152343750e+02 1.714223480224609375e+02 1.721382751464843750e+02 1.714755706787109375e+02 1.705297851562500000e+02 1.701445312500000000e+02 1.689686889648437500e+02 1.663658294677734375e+02 1.650810699462890625e+02 1.649429626464843750e+02 1.615034484863281250e+02 1.624747009277343750e+02 1.667349700927734375e+02 1.675613861083984375e+02 1.636123046875000000e+02 1.608699645996093750e+02 1.619622497558593750e+02 1.661902770996093750e+02 1.680248260498046875e+02 1.690651702880859375e+02 1.702828521728515625e+02 1.729691619873046875e+02 1.774336242675781250e+02 1.834021606445312500e+02 1.859332733154296875e+02 1.847627563476562500e+02 1.832666778564453125e+02 1.817566223144531250e+02 1.783629913330078125e+02 1.719586029052734375e+02 1.651363830566406250e+02 1.601831970214843750e+02 1.543373565673828125e+02 1.517862091064453125e+02 1.522008056640625000e+02 1.533551940917968750e+02 1.539345245361328125e+02 1.505581665039062500e+02 1.488536529541015625e+02 1.503408660888671875e+02 1.517970275878906250e+02 1.534151611328125000e+02
1.658029937744140625e+02 1.654107208251953125e+02 1.650685119628906250e+02 1.647949523925781250e+02 1.644816741943359375e+02 1.643418273925781250e+02 1.644155120849609375e+02 1.645028533935546875e+02 1.645241851806640625e+02 1.644424133300781250e+02 1.643734588623046875e+02 1.642224578857421875e+02 1.640126037597656250e+02 1.637660827636718750e+02 1.635809173583984375e+02 1.636609191894531250e+02 1.636765747070312500e+02 1.635830230712890625e+02 1.636196746826171875e+02 1.637496490478515625e+02 1.650345916748046875e+02 1.668899688720703125e+02 1.667105407714843750e+02 1.678289642333984375e+02 1.689630889892578125e+02 1.686919403076171875e+02 1.665745849609375000e+02 1.655891265869140625e+02 1.652823181152343750e+02 1.654857025146484375e+02 1.656461486816406250e+02 1.674668426513671875e+02 1.744070129394531250e+02 1.809589996337890625e+02 1.795916442871093750e+02 1.724309082031250000e+02 1.690647583007812500e+02 1.687888793945312500e+02 1.689686126708984375e+02 1.696120452880859375e+02 1.715496520996093750e+02 1.722105712890625000e+02 1.727990417480468750e+02 1.742393798828125000e+02 1.763752441406250000e+02 1.766804809570312500e+02 1.740455169677734375e+02 1.713098754882812500e+02 1.707522888183593750e+02 1.716701354980468750e+02 1.724413604736328125e+02 1.724670715332031250e+02 1.735305786132812500e+02 1.740718994140625000e+02 1.751960754394531250e+02 1.774714965820312500e+02 1.779731597900390625e+02 1.770967559814453125e+02 1.768449707031250000e+02 1.766849670410156250e+02 1.767439117431640625e+02 1.769300079345703125e+02 1.769975280761718750e+02 1.772708740234375000e+02 1.781893005371093750e+02 1.803112487792968750e+02 1.817960815429687500e+02 1.833958282470703125e+02 1.847341308593750000e+02 1.834117889404296875e+02 1.808862609863281250e+02 1.750385894775390625e+02 1.703233184814453125e+02 1.703125762939453125e+02 1.721584472656250000e+02 1.739224395751953125e+02 1.737368316650390625e+02 1.723950653076171875e+02 1.718655242919921875e+02 1.715899963378906250e+02 1.716567993164062500e+02 1.736698760986328125e+02 1.725594024658203125e+02 1.703473510742187500e+02 1.670538177490234375e+02 1.654215393066406250e+02 1.655345458984375000e+02 1.634803466796875000e+02 1.610989837646484375e+02 1.648708953857421875e+02 1.666497650146484375e+02 1.637198028564453125e+02 1.611916503906250000e+02 1.610766143798828125e+02 1.636342315673828125e+02 1.667826538085937500e+02 1.681280517578125000e+02 1.674027709960937500e+02 1.676960754394531250e+02 1.712690887451171875e+02 1.777090454101562500e+02 1.829716796875000000e+02 1.854837493896484375e+02 1.833368225097656250e+02 1.810172882080078125e+02 1.776462554931640625e+02 1.727993469238281250e+02 1.671890411376953125e+02 1.627815856933593750e+02 1.583997802734375000e+02 1.556033020019531250e+02 1.562705230712890625e+02 1.558760070800781250e+02 1.550418090820312500e+02 1.528488006591796875e+02 1.499680023193359375e+02 1.490694274902343750e+02 1.493297882080078125e+02 1.505111541748046875e+02
1.650265350341796875e+02 1.647136230468750000e+02 1.645316772460937500e+02 1.643304443359375000e+02 1.642043304443359375e+02 1.641929779052734375e+02 1.641929931640625000e+02 1.642343139648437500e+02 1.642961578369140625e+02 1.643076477050781250e+02 1.642421722412109375e+02 1.640161132812500000e+02 1.636275329589843750e+02 1.632728424072265625e+02 1.631364288330078125e+02 1.632780761718750000e+02 1.633375549316406250e+02 1.634094238281250000e+02 1.634904937744140625e+02 1.635328063964843750e+02 1.649625854492187500e+02 1.671258697509765625e+02 1.665889282226562500e+02 1.671634063720703125e+02 1.681611175537109375e+02 1.672734375000000000e+02 1.658507385253906250e+02 1.653870086669921875e+02 1.651169128417968750e+02 1.653597412109375000e+02 1.657935180664062500e+02 1.698131103515625000e+02 1.752969818115234375e+02 1.802861022949218750e+02 1.828075256347656250e+02 1.761434478759765625e+02 1.700688018798828125e+02 1.691148223876953125e+02 1.691567382812500000e+02 1.697106628417968750e+02 1.721401977539062500e+02 1.732115478515625000e+02 1.738530578613281250e+02 1.749721527099609375e+02 1.763991241455078125e+02 1.767266540527343750e+02 1.741958160400390625e+02 1.716562042236328125e+02 1.711481781005859375e+02 1.725210418701171875e+02 1.757616119384765625e+02 1.777725982666015625e+02 1.780082244873046875e+02 1.780114135742187500e+02 1.784464416503906250e+02 1.792180786132812500e+02 1.796371612548828125e+02 1.798379516601562500e+02 1.795215759277343750e+02 1.781857452392578125e+02 1.775407257080078125e+02 1.772380981445312500e+02 1.771824340820312500e+02 1.776618957519531250e+02 1.794032592773437500e+02 1.804380187988281250e+02 1.809942169189453125e+02 1.820084838867187500e+02 1.832171783447265625e+02 1.822591857910156250e+02 1.797309265136718750e+02 1.729688873291015625e+02 1.706879730224609375e+02 1.733679809570312500e+02 1.747591857910156250e+02 1.754013366699218750e+02 1.746966094970703125e+02 1.728047790527343750e+02 1.727076263427734375e+02 1.722803649902343750e+02 1.739662933349609375e+02 1.780515289306640625e+02 1.753295288085937500e+02 1.715246734619140625e+02 1.680354156494140625e+02 1.659164276123046875e+02 1.655529327392578125e+02 1.652583618164062500e+02 1.619970550537109375e+02 1.637305297851562500e+02 1.658587951660156250e+02 1.647418975830078125e+02 1.638919830322265625e+02 1.624427185058593750e+02 1.628898468017578125e+02 1.640484771728515625e+02 1.646532287597656250e+02 1.643039093017578125e+02 1.639324035644531250e+02 1.666412811279296875e+02 1.740059051513671875e+02 1.794637145996093750e+02 1.817574005126953125e+02 1.802817535400390625e+02 1.788976593017578125e+02 1.766315917968750000e+02 1.710884552001953125e+02 1.668508453369140625e+02 1.631351165771484375e+02 1.598442840576171875e+02 1.589912414550781250e+02 1.611316223144531250e+02 1.611309204101562500e+02 1.589973602294921875e+02 1.571931610107421875e+02 1.554223937988281250e+02 1.509593811035156250e+02 1.491521453857421875e+02 1.506239166259765625e+02
1.647775115966796875e+02 1.644947204589843750e+02 1.643782958984375000e+02 1.643206176757812500e+02 1.643055419921875000e+02 1.643026275634765625e+02 1.642515716552734375e+02 1.641618194580078125e+02 1.640635528564453125e+02 1.639547729492187500e+02 1.639729003906250000e+02 1.637418365478515625e+02 1.633725128173828125e+02 1.632574462890625000e+02 1.632066802978515625e+02 1.630157623291015625e+02 1.630693664550781250e+02 1.631162109375000000e+02 1.632088470458984375e+02 1.632505035400390625e+02 1.638714904785156250e+02 1.656998138427734375e+02 1.659549560546875000e+02 1.659617309570312500e+02 1.667297363281250000e+02 1.659449920654296875e+02 1.652700653076171875e+02 1.651353912353515625e+02 1.649478607177734375e+02 1.652281341552734375e+02 1.665481719970703125e+02 1.736282653808593750e+02 1.767232513427734375e+02 1.799370574951171875e+02 1.835175170898437500e+02 1.792893829345703125e+02 1.722123260498046875e+02 1.696123046875000000e+02 1.694069366455078125e+02 1.700028991699218750e+02 1.715722045898437500e+02 1.723373870849609375e+02 1.732890319824218750e+02 1.744756164550781250e+02 1.752964172363281250e+02 1.755535278320312500e+02 1.737619171142578125e+02 1.715188293457031250e+02 1.712114257812500000e+02 1.729802246093750000e+02 1.778584289550781250e+02 1.810936126708984375e+02 1.820052947998046875e+02 1.808611145019531250e+02 1.802044982910156250e+02 1.800998229980468750e+02 1.808167724609375000e+02 1.828485107421875000e+02 1.830466003417968750e+02 1.817210845947265625e+02 1.807522125244140625e+02 1.802373962402343750e+02 1.797124786376953125e+02 1.799644775390625000e+02 1.819503631591796875e+02 1.828871612548828125e+02 1.829388275146484375e+02 1.826745300292968750e+02 1.811054840087890625e+02 1.784653167724609375e+02 1.753065643310546875e+02 1.719562072753906250e+02 1.734723663330078125e+02 1.753360137939453125e+02 1.753819274902343750e+02 1.754024200439453125e+02 1.744055633544921875e+02 1.735794982910156250e+02 1.744404449462890625e+02 1.748715820312500000e+02 1.753900909423828125e+02 1.770348815917968750e+02 1.744864349365234375e+02 1.731955261230468750e+02 1.715470428466796875e+02 1.676349639892578125e+02 1.656017303466796875e+02 1.643237915039062500e+02 1.629702453613281250e+02 1.628692321777343750e+02 1.645439910888671875e+02 1.657582092285156250e+02 1.672673492431640625e+02 1.653440093994140625e+02 1.648896942138671875e+02 1.656358489990234375e+02 1.640434722900390625e+02 1.634250793457031250e+02 1.636277160644531250e+02 1.665972900390625000e+02 1.720027465820312500e+02 1.758334045410156250e+02 1.790602874755859375e+02 1.788510742187500000e+02 1.782550048828125000e+02 1.771551208496093750e+02 1.734477996826171875e+02 1.678722839355468750e+02 1.626870117187500000e+02 1.597552642822265625e+02 1.594695892333984375e+02 1.615884552001953125e+02 1.616873016357421875e+02 1.592877044677734375e+02 1.579996948242187500e+02 1.571822357177734375e+02 1.525866394042968750e+02 1.513552398681640625e+02 1.530479125976562500e+02
1.648958129882812500e+02 1.645365142822265625e+02 1.643987579345703125e+02 1.643755035400390625e+02 1.643768920898437500e+02 1.643857574462890625e+02 1.643737030029296875e+02 1.642929077148437500e+02 1.641477355957031250e+02 1.639323883056640625e+02 1.637833251953125000e+02 1.635469665527343750e+02 1.634849243164062500e+02 1.635030517578125000e+02 1.633825378417968750e+02 1.631349182128906250e+02 1.628710174560546875e+02 1.628424530029296875e+02 1.628351593017578125e+02 1.629020233154296875e+02 1.630972442626953125e+02 1.638424530029296875e+02 1.645528717041015625e+02 1.645027008056640625e+02 1.649970092773437500e+02 1.652257080078125000e+02 1.649624176025390625e+02 1.649142761230468750e+02 1.648035888671875000e+02 1.650611419677734375e+02 1.678291320800781250e+02 1.776763916015625000e+02 1.798889617919921875e+02 1.820758819580078125e+02 1.832223205566406250e+02 1.802006225585937500e+02 1.738431701660156250e+02 1.702686309814453125e+02 1.699227142333984375e+02 1.704449462890625000e+02 1.708320770263671875e+02 1.714961853027343750e+02 1.733203735351562500e+02 1.742135772705078125e+02 1.738693542480468750e+02 1.736363372802734375e+02 1.728640289306640625e+02 1.715749969482421875e+02 1.712656402587890625e+02 1.730370788574218750e+02 1.788941192626953125e+02 1.824753112792968750e+02 1.836149902343750000e+02 1.851447296142578125e+02 1.836549835205078125e+02 1.810433654785156250e+02 1.807979888916015625e+02 1.831304473876953125e+02 1.846850585937500000e+02 1.844409332275390625e+02 1.842227325439453125e+02 1.836522521972656250e+02 1.832421264648437500e+02 1.830962677001953125e+02 1.840747222900390625e+02 1.856254577636718750e+02 1.866412048339843750e+02 1.850876617431640625e+02 1.795512390136718750e+02 1.760184936523437500e+02 1.725209350585937500e+02 1.721154479980468750e+02 1.750549926757812500e+02 1.755889129638671875e+02 1.747126007080078125e+02 1.740599060058593750e+02 1.737845153808593750e+02 1.753863983154296875e+02 1.768139801025390625e+02 1.760059204101562500e+02 1.752525634765625000e+02 1.745126800537109375e+02 1.724197387695312500e+02 1.729159851074218750e+02 1.720157012939453125e+02 1.674675903320312500e+02 1.646163635253906250e+02 1.638011474609375000e+02 1.639254760742187500e+02 1.629750061035156250e+02 1.633263092041015625e+02 1.658552703857421875e+02 1.685351257324218750e+02 1.673253173828125000e+02 1.657110900878906250e+02 1.672144622802734375e+02 1.652449493408203125e+02 1.638112640380859375e+02 1.645179595947265625e+02 1.671708984375000000e+02 1.712554016113281250e+02 1.740960540771484375e+02 1.775890350341796875e+02 1.790154266357421875e+02 1.797335510253906250e+02 1.778138580322265625e+02 1.748466644287109375e+02 1.703194274902343750e+02 1.645071411132812500e+02 1.611161651611328125e+02 1.594304046630859375e+02 1.611922454833984375e+02 1.616782836914062500e+02 1.586407012939453125e+02 1.568006439208984375e+02 1.568202209472656250e+02 1.546680908203125000e+02 1.528508300781250000e+02 1.526777191162109375e+02
1.650082855224609375e+02 1.648238830566406250e+02 1.647064361572265625e+02 1.646561431884765625e+02 1.645598144531250000e+02 1.645440979003906250e+02 1.644596405029296875e+02 1.644545898437500000e+02 1.642629699707031250e+02 1.640895538330078125e+02 1.639878845214843750e+02 1.638147430419921875e+02 1.637133026123046875e+02 1.636356201171875000e+02 1.634868316650390625e+02 1.632897644042968750e+02 1.630869293212890625e+02 1.629352264404296875e+02 1.628088226318359375e+02 1.627358398437500000e+02 1.626671905517578125e+02 1.630164489746093750e+02 1.636550445556640625e+02 1.646656188964843750e+02 1.658094024658203125e+02 1.654271850585937500e+02 1.648899841308593750e+02 1.647128601074218750e+02 1.646288146972656250e+02 1.648594970703125000e+02 1.693398895263671875e+02 1.799373931884765625e+02 1.808965454101562500e+02 1.818904266357421875e+02 1.832971801757812500e+02 1.801639251708984375e+02 1.740376281738281250e+02 1.714625396728515625e+02 1.722577514648437500e+02 1.728719329833984375e+02 1.728390197753906250e+02 1.732629699707031250e+02 1.755099639892578125e+02 1.770444183349609375e+02 1.747302551269531250e+02 1.723492889404296875e+02 1.720532836914062500e+02 1.717947998046875000e+02 1.715735321044921875e+02 1.723609619140625000e+02 1.784327239990234375e+02 1.828443145751953125e+02 1.839312896728515625e+02 1.852763061523437500e+02 1.854566345214843750e+02 1.825395050048828125e+02 1.805790710449218750e+02 1.823355102539062500e+02 1.851220245361328125e+02 1.856272888183593750e+02 1.855351715087890625e+02 1.847352447509765625e+02 1.840542907714843750e+02 1.843888854980468750e+02 1.845275726318359375e+02 1.861338043212890625e+02 1.873287811279296875e+02 1.846186370849609375e+02 1.769496917724609375e+02 1.749279785156250000e+02 1.721566162109375000e+02 1.719954223632812500e+02 1.759022216796875000e+02 1.762346038818359375e+02 1.746683502197265625e+02 1.737080993652343750e+02 1.748885803222656250e+02 1.769893035888671875e+02 1.792851562500000000e+02 1.769262695312500000e+02 1.746866760253906250e+02 1.724795227050781250e+02 1.692734375000000000e+02 1.685230255126953125e+02 1.681219787597656250e+02 1.660505065917968750e+02 1.655511627197265625e+02 1.651244354248046875e+02 1.656147308349609375e+02 1.652708892822265625e+02 1.646414794921875000e+02 1.654106292724609375e+02 1.686508636474609375e+02 1.680904693603515625e+02 1.659159393310546875e+02 1.674655761718750000e+02 1.663311767578125000e+02 1.647983093261718750e+02 1.680323333740234375e+02 1.693222198486328125e+02 1.706919555664062500e+02 1.729731292724609375e+02 1.773739166259765625e+02 1.791005249023437500e+02 1.790438079833984375e+02 1.778483276367187500e+02 1.737243804931640625e+02 1.683135223388671875e+02 1.635431365966796875e+02 1.596547698974609375e+02 1.574262695312500000e+02 1.587018280029296875e+02 1.606231079101562500e+02 1.585351715087890625e+02 1.569290618896484375e+02 1.587068023681640625e+02 1.587452392578125000e+02 1.573332672119140625e+02 1.558294982910156250e+02
1.651177673339843750e+02 1.650222473144531250e+02 1.649231109619140625e+02 1.648068237304687500e+02 1.646790924072265625e+02 1.645923309326171875e+02 1.645055389404296875e+02 1.644172821044921875e+02 1.642700042724609375e+02 1.641925506591796875e+02 1.640726776123046875e+02 1.638613891601562500e+02 1.637702178955078125e+02 1.636932525634765625e+02 1.635043029785156250e+02 1.633572387695312500e+02 1.633498992919921875e+02 1.632701873779296875e+02 1.631529998779296875e+02 1.630111694335937500e+02 1.626318969726562500e+02 1.625741729736328125e+02 1.633193511962890625e+02 1.653171691894531250e+02 1.668624877929687500e+02 1.662454986572265625e+02 1.651923065185546875e+02 1.646085815429687500e+02 1.644485015869140625e+02 1.647849578857421875e+02 1.685428314208984375e+02 1.782674255371093750e+02 1.799542083740234375e+02 1.808273468017578125e+02 1.815178527832031250e+02 1.787619171142578125e+02 1.749263610839843750e+02 1.747381439208984375e+02 1.759445800781250000e+02 1.753831329345703125e+02 1.746375427246093750e+02 1.752359924316406250e+02 1.773990936279296875e+02 1.782181243896484375e+02 1.764434356689453125e+02 1.738699493408203125e+02 1.751447296142578125e+02 1.741517028808593750e+02 1.727737731933593750e+02 1.720162048339843750e+02 1.771159362792968750e+02 1.826690521240234375e+02 1.843695220947265625e+02 1.853160095214843750e+02 1.851992034912109375e+02 1.837424316406250000e+02 1.812986450195312500e+02 1.808510894775390625e+02 1.838062286376953125e+02 1.863675689697265625e+02 1.862052612304687500e+02 1.852714538574218750e+02 1.840127563476562500e+02 1.842896728515625000e+02 1.847818298339843750e+02 1.863098602294921875e+02 1.860248260498046875e+02 1.820785827636718750e+02 1.750433044433593750e+02 1.731202392578125000e+02 1.715226593017578125e+02 1.743845367431640625e+02 1.769325103759765625e+02 1.765907135009765625e+02 1.744580841064453125e+02 1.745374145507812500e+02 1.761231231689453125e+02 1.780350646972656250e+02 1.790815887451171875e+02 1.770629272460937500e+02 1.738567352294921875e+02 1.698837432861328125e+02 1.678852691650390625e+02 1.668263092041015625e+02 1.662022857666015625e+02 1.664895172119140625e+02 1.668185729980468750e+02 1.672304687500000000e+02 1.681761779785156250e+02 1.680478057861328125e+02 1.668830108642578125e+02 1.652832641601562500e+02 1.680076446533203125e+02 1.693930206298828125e+02 1.666618804931640625e+02 1.662281951904296875e+02 1.673354492187500000e+02 1.664933471679687500e+02 1.703395996093750000e+02 1.745158386230468750e+02 1.725868988037109375e+02 1.720366821289062500e+02 1.768601989746093750e+02 1.787670440673828125e+02 1.778371887207031250e+02 1.771812744140625000e+02 1.741046600341796875e+02 1.665231628417968750e+02 1.602407531738281250e+02 1.572131347656250000e+02 1.563367919921875000e+02 1.567270965576171875e+02 1.581313323974609375e+02 1.575246429443359375e+02 1.563880920410156250e+02 1.579558563232421875e+02 1.593678283691406250e+02 1.579517669677734375e+02 1.559270172119140625e+02
1.651840972900390625e+02 1.650738525390625000e+02 1.649772644042968750e+02 1.648740997314453125e+02 1.647695465087890625e+02 1.645962829589843750e+02 1.644546203613281250e+02 1.643214416503906250e+02 1.641882476806640625e+02 1.640649261474609375e+02 1.639613494873046875e+02 1.638327026367187500e+02 1.637224273681640625e+02 1.636689910888671875e+02 1.635726623535156250e+02 1.635048980712890625e+02 1.634564666748046875e+02 1.633685760498046875e+02 1.633045806884765625e+02 1.631394348144531250e+02 1.628476409912109375e+02 1.623973541259765625e+02 1.628597869873046875e+02 1.643063812255859375e+02 1.662209777832031250e+02 1.670578155517578125e+02 1.657370452880859375e+02 1.645989227294921875e+02 1.643197631835937500e+02 1.647015838623046875e+02 1.666641998291015625e+02 1.741163024902343750e+02 1.792767486572265625e+02 1.805999450683593750e+02 1.807304840087890625e+02 1.780793304443359375e+02 1.751814270019531250e+02 1.752989196777343750e+02 1.772767791748046875e+02 1.772474670410156250e+02 1.777325286865234375e+02 1.792609710693359375e+02 1.805631866455078125e+02 1.801656951904296875e+02 1.778831634521484375e+02 1.758195190429687500e+02 1.770974273681640625e+02 1.761932067871093750e+02 1.732841796875000000e+02 1.719438629150390625e+02 1.760157318115234375e+02 1.825002441406250000e+02 1.841370239257812500e+02 1.849454803466796875e+02 1.852972564697265625e+02 1.839981689453125000e+02 1.819605560302734375e+02 1.803675994873046875e+02 1.828221588134765625e+02 1.858423614501953125e+02 1.869198455810546875e+02 1.860810241699218750e+02 1.844466247558593750e+02 1.832206420898437500e+02 1.839696044921875000e+02 1.853149871826171875e+02 1.828997497558593750e+02 1.780088348388671875e+02 1.733962554931640625e+02 1.712039642333984375e+02 1.711147613525390625e+02 1.756560211181640625e+02 1.770657348632812500e+02 1.757147064208984375e+02 1.745993347167968750e+02 1.760335388183593750e+02 1.769204711914062500e+02 1.779253082275390625e+02 1.775436553955078125e+02 1.756016235351562500e+02 1.712370910644531250e+02 1.672966766357421875e+02 1.667403411865234375e+02 1.663960266113281250e+02 1.663775024414062500e+02 1.676611022949218750e+02 1.688284301757812500e+02 1.689912719726562500e+02 1.701367645263671875e+02 1.702644653320312500e+02 1.691996307373046875e+02 1.662419433593750000e+02 1.660542449951171875e+02 1.683379821777343750e+02 1.668339996337890625e+02 1.659135437011718750e+02 1.675677490234375000e+02 1.669702301025390625e+02 1.707479705810546875e+02 1.779069061279296875e+02 1.777829742431640625e+02 1.739047241210937500e+02 1.738535461425781250e+02 1.758536224365234375e+02 1.755224761962890625e+02 1.759579772949218750e+02 1.744438018798828125e+02 1.671302185058593750e+02 1.596456146240234375e+02 1.566543884277343750e+02 1.559883270263671875e+02 1.558369750976562500e+02 1.558168029785156250e+02 1.556933288574218750e+02 1.555990295410156250e+02 1.561446380615234375e+02 1.572819519042968750e+02 1.566371154785156250e+02 1.550135192871093750e+02
1.652636413574218750e+02 1.651390991210937500e+02 1.650280456542968750e+02 1.649417114257812500e+02 1.648305358886718750e+02 1.646860809326171875e+02 1.644911651611328125e+02 1.643372344970703125e+02 1.641138153076171875e+02 1.639659729003906250e+02 1.639181060791015625e+02 1.639309692382812500e+02 1.638968658447265625e+02 1.638286132812500000e+02 1.637094268798828125e+02 1.635948791503906250e+02 1.634692840576171875e+02 1.633271026611328125e+02 1.632338562011718750e+02 1.631150054931640625e+02 1.629566040039062500e+02 1.624930267333984375e+02 1.624105682373046875e+02 1.631035614013671875e+02 1.652620239257812500e+02 1.675232086181640625e+02 1.666429290771484375e+02 1.650030364990234375e+02 1.642657470703125000e+02 1.645075378417968750e+02 1.657668151855468750e+02 1.697457580566406250e+02 1.743806762695312500e+02 1.762427825927734375e+02 1.772025909423828125e+02 1.770413665771484375e+02 1.757451629638671875e+02 1.744765625000000000e+02 1.768730926513671875e+02 1.794024963378906250e+02 1.820020446777343750e+02 1.834704742431640625e+02 1.822326965332031250e+02 1.804411468505859375e+02 1.803121643066406250e+02 1.791035461425781250e+02 1.783500213623046875e+02 1.765211639404296875e+02 1.727056274414062500e+02 1.717484893798828125e+02 1.742180938720703125e+02 1.804403533935546875e+02 1.832266998291015625e+02 1.840914001464843750e+02 1.842764434814453125e+02 1.840436553955078125e+02 1.824594573974609375e+02 1.805738525390625000e+02 1.814533538818359375e+02 1.847076263427734375e+02 1.869564056396484375e+02 1.872272644042968750e+02 1.841274719238281250e+02 1.813889465332031250e+02 1.828949279785156250e+02 1.831593017578125000e+02 1.795630493164062500e+02 1.745190124511718750e+02 1.723854675292968750e+02 1.717721099853515625e+02 1.720060119628906250e+02 1.745732727050781250e+02 1.760089721679687500e+02 1.756503906250000000e+02 1.756992797851562500e+02 1.768868560791015625e+02 1.772385559082031250e+02 1.769629364013671875e+02 1.750972900390625000e+02 1.710213317871093750e+02 1.676816253662109375e+02 1.662902984619140625e+02 1.663187408447265625e+02 1.664084472656250000e+02 1.664718780517578125e+02 1.684975280761718750e+02 1.713349456787109375e+02 1.713519897460937500e+02 1.725680084228515625e+02 1.723594360351562500e+02 1.705907897949218750e+02 1.687714996337890625e+02 1.659708709716796875e+02 1.659375000000000000e+02 1.666546173095703125e+02 1.660848693847656250e+02 1.678616943359375000e+02 1.673765258789062500e+02 1.697331085205078125e+02 1.766389923095703125e+02 1.794770355224609375e+02 1.776190948486328125e+02 1.729054565429687500e+02 1.736291503906250000e+02 1.754776916503906250e+02 1.757618255615234375e+02 1.745908050537109375e+02 1.703735504150390625e+02 1.628766784667968750e+02 1.576053771972656250e+02 1.560586395263671875e+02 1.556439056396484375e+02 1.557134399414062500e+02 1.555601043701171875e+02 1.554161834716796875e+02 1.555011596679687500e+02 1.556541290283203125e+02 1.553918914794921875e+02 1.550359649658203125e+02
1.653109436035156250e+02 1.651726531982421875e+02 1.650566101074218750e+02 1.649833221435546875e+02 1.648800048828125000e+02 1.647682647705078125e+02 1.645337677001953125e+02 1.644135742187500000e+02 1.644290771484375000e+02 1.642760620117187500e+02 1.642350006103515625e+02 1.641986999511718750e+02 1.641308746337890625e+02 1.640577392578125000e+02 1.639593963623046875e+02 1.638594360351562500e+02 1.637180175781250000e+02 1.634264221191406250e+02 1.631911163330078125e+02 1.630177154541015625e+02 1.628630371093750000e+02 1.625940246582031250e+02 1.622514953613281250e+02 1.623244934082031250e+02 1.636017303466796875e+02 1.662918090820312500e+02 1.669794921875000000e+02 1.653448944091796875e+02 1.642277679443359375e+02 1.644426879882812500e+02 1.652996673583984375e+02 1.669730377197265625e+02 1.696921691894531250e+02 1.729772491455078125e+02 1.754193572998046875e+02 1.763343658447265625e+02 1.750279388427734375e+02 1.740943603515625000e+02 1.767186126708984375e+02 1.807387695312500000e+02 1.842577514648437500e+02 1.853856201171875000e+02 1.828262786865234375e+02 1.817320404052734375e+02 1.830420074462890625e+02 1.829590606689453125e+02 1.824526062011718750e+02 1.782297058105468750e+02 1.726949462890625000e+02 1.718797607421875000e+02 1.732192993164062500e+02 1.789189147949218750e+02 1.834527587890625000e+02 1.842393798828125000e+02 1.849857940673828125e+02 1.850554962158203125e+02 1.825837707519531250e+02 1.811528778076171875e+02 1.804309234619140625e+02 1.833486633300781250e+02 1.862098999023437500e+02 1.863037872314453125e+02 1.826886901855468750e+02 1.807772369384765625e+02 1.815649719238281250e+02 1.796068420410156250e+02 1.750915069580078125e+02 1.724708557128906250e+02 1.725445861816406250e+02 1.744228363037109375e+02 1.752215576171875000e+02 1.750546875000000000e+02 1.753096160888671875e+02 1.755138092041015625e+02 1.766336364746093750e+02 1.771456146240234375e+02 1.771443328857421875e+02 1.758043823242187500e+02 1.716472930908203125e+02 1.670829315185546875e+02 1.661974487304687500e+02 1.675634460449218750e+02 1.706616516113281250e+02 1.723134307861328125e+02 1.708468475341796875e+02 1.712349395751953125e+02 1.724830322265625000e+02 1.732965393066406250e+02 1.754408721923828125e+02 1.746267700195312500e+02 1.720249786376953125e+02 1.703012084960937500e+02 1.672544097900390625e+02 1.647467956542968750e+02 1.651454620361328125e+02 1.654365081787109375e+02 1.664106903076171875e+02 1.668454132080078125e+02 1.694957275390625000e+02 1.752718505859375000e+02 1.782372589111328125e+02 1.786449890136718750e+02 1.740109863281250000e+02 1.734496765136718750e+02 1.741719818115234375e+02 1.757416381835937500e+02 1.755063171386718750e+02 1.734067535400390625e+02 1.680984344482421875e+02 1.604532470703125000e+02 1.564160156250000000e+02 1.563193511962890625e+02 1.582153930664062500e+02 1.586641082763671875e+02 1.583013763427734375e+02 1.583936004638671875e+02 1.583380279541015625e+02 1.574570312500000000e+02 1.570379486083984375e+02
1.653057098388671875e+02 1.651623535156250000e+02 1.650602874755859375e+02 1.649916076660156250e+02 1.649355773925781250e+02 1.648251800537109375e+02 1.646500549316406250e+02 1.647318572998046875e+02 1.648130950927734375e+02 1.647908630371093750e+02 1.647400054931640625e+02 1.645565643310546875e+02 1.644119567871093750e+02 1.642749023437500000e+02 1.641416168212890625e+02 1.640433807373046875e+02 1.639235229492187500e+02 1.637490386962890625e+02 1.635574493408203125e+02 1.634048156738281250e+02 1.632049713134765625e+02 1.628802032470703125e+02 1.625031585693359375e+02 1.621714172363281250e+02 1.622911987304687500e+02 1.638849334716796875e+02 1.656655120849609375e+02 1.650075073242187500e+02 1.642790832519531250e+02 1.645805358886718750e+02 1.650376281738281250e+02 1.661867370605468750e+02 1.695632019042968750e+02 1.725033569335937500e+02 1.751138458251953125e+02 1.759371032714843750e+02 1.742238159179687500e+02 1.735341186523437500e+02 1.751930389404296875e+02 1.798111419677734375e+02 1.833180541992187500e+02 1.849221801757812500e+02 1.838501281738281250e+02 1.837433776855468750e+02 1.846471252441406250e+02 1.851985168457031250e+02 1.854241943359375000e+02 1.791166229248046875e+02 1.726239318847656250e+02 1.726400604248046875e+02 1.739058380126953125e+02 1.785339965820312500e+02 1.843359985351562500e+02 1.853967590332031250e+02 1.860381317138671875e+02 1.854904632568359375e+02 1.834408874511718750e+02 1.821903533935546875e+02 1.790706787109375000e+02 1.793229370117187500e+02 1.833801269531250000e+02 1.841247711181640625e+02 1.820452575683593750e+02 1.798838653564453125e+02 1.778050689697265625e+02 1.751102752685546875e+02 1.728532714843750000e+02 1.721957092285156250e+02 1.734287414550781250e+02 1.758147125244140625e+02 1.768111419677734375e+02 1.776398620605468750e+02 1.771265563964843750e+02 1.766778411865234375e+02 1.770272979736328125e+02 1.776023559570312500e+02 1.767096099853515625e+02 1.742186584472656250e+02 1.692862243652343750e+02 1.663380889892578125e+02 1.668056335449218750e+02 1.709248199462890625e+02 1.771152496337890625e+02 1.805084991455078125e+02 1.786015625000000000e+02 1.761089477539062500e+02 1.739462585449218750e+02 1.742953796386718750e+02 1.757435760498046875e+02 1.750635681152343750e+02 1.721648864746093750e+02 1.701865234375000000e+02 1.679031372070312500e+02 1.652564392089843750e+02 1.643826599121093750e+02 1.653851013183593750e+02 1.671612091064453125e+02 1.662850494384765625e+02 1.668528747558593750e+02 1.704996643066406250e+02 1.745682830810546875e+02 1.766362457275390625e+02 1.740142517089843750e+02 1.743742065429687500e+02 1.742246704101562500e+02 1.726800231933593750e+02 1.727144775390625000e+02 1.749224700927734375e+02 1.727540588378906250e+02 1.638844451904296875e+02 1.569268035888671875e+02 1.568174285888671875e+02 1.601748199462890625e+02 1.625349426269531250e+02 1.627781829833984375e+02 1.621787261962890625e+02 1.609681854248046875e+02 1.598449554443359375e+02 1.591732025146484375e+02
1.652977600097656250e+02 1.652088165283203125e+02 1.651510925292968750e+02 1.650988769531250000e+02 1.650075378417968750e+02 1.648541412353515625e+02 1.649375305175781250e+02 1.650505523681640625e+02 1.651481323242187500e+02 1.651963043212890625e+02 1.651889801025390625e+02 1.649712829589843750e+02 1.647854766845703125e+02 1.644369659423828125e+02 1.641740570068359375e+02 1.640657806396484375e+02 1.639443969726562500e+02 1.638051910400390625e+02 1.636742248535156250e+02 1.635545959472656250e+02 1.634708404541015625e+02 1.633381500244140625e+02 1.630709838867187500e+02 1.623981933593750000e+02 1.619657440185546875e+02 1.622446441650390625e+02 1.632286224365234375e+02 1.641890869140625000e+02 1.642986450195312500e+02 1.646171264648437500e+02 1.648881225585937500e+02 1.666125946044921875e+02 1.704478302001953125e+02 1.725108795166015625e+02 1.738222961425781250e+02 1.736838226318359375e+02 1.735668945312500000e+02 1.749578247070312500e+02 1.746391601562500000e+02 1.769734191894531250e+02 1.800059661865234375e+02 1.821833190917968750e+02 1.837867431640625000e+02 1.843064727783203125e+02 1.852591400146484375e+02 1.850328063964843750e+02 1.847021942138671875e+02 1.793463287353515625e+02 1.728808898925781250e+02 1.739476318359375000e+02 1.759217529296875000e+02 1.781056365966796875e+02 1.838569641113281250e+02 1.862103881835937500e+02 1.869218902587890625e+02 1.860520782470703125e+02 1.850399475097656250e+02 1.828865966796875000e+02 1.780737152099609375e+02 1.743597259521484375e+02 1.782877960205078125e+02 1.813077087402343750e+02 1.801850738525390625e+02 1.773102722167968750e+02 1.742624511718750000e+02 1.733671722412109375e+02 1.729792785644531250e+02 1.723036499023437500e+02 1.732438964843750000e+02 1.756101226806640625e+02 1.767223358154296875e+02 1.782507476806640625e+02 1.788670654296875000e+02 1.786671600341796875e+02 1.779473266601562500e+02 1.781672973632812500e+02 1.761597290039062500e+02 1.721972656250000000e+02 1.675998535156250000e+02 1.666170501708984375e+02 1.693115081787109375e+02 1.752861175537109375e+02 1.804929656982421875e+02 1.832809295654296875e+02 1.831104278564453125e+02 1.803453521728515625e+02 1.767338867187500000e+02 1.760765380859375000e+02 1.768208312988281250e+02 1.757622985839843750e+02 1.740882110595703125e+02 1.729392852783203125e+02 1.714423828125000000e+02 1.691827545166015625e+02 1.652928466796875000e+02 1.644264984130859375e+02 1.664469604492187500e+02 1.668048706054687500e+02 1.663332977294921875e+02 1.662266693115234375e+02 1.679125823974609375e+02 1.704531860351562500e+02 1.728588256835937500e+02 1.737245025634765625e+02 1.747721099853515625e+02 1.713984680175781250e+02 1.696985168457031250e+02 1.729324188232421875e+02 1.729733276367187500e+02 1.653328857421875000e+02 1.573027801513671875e+02 1.569849853515625000e+02 1.610044708251953125e+02 1.641022033691406250e+02 1.646749420166015625e+02 1.641678619384765625e+02 1.626729583740234375e+02 1.613117675781250000e+02 1.601503753662109375e+02
1.653848266601562500e+02 1.653429260253906250e+02 1.652616729736328125e+02 1.652003326416015625e+02 1.650538787841796875e+02 1.650394287109375000e+02 1.651914367675781250e+02 1.652392883300781250e+02 1.653252105712890625e+02 1.653820037841796875e+02 1.654300079345703125e+02 1.653192138671875000e+02 1.652097015380859375e+02 1.650264129638671875e+02 1.644848175048828125e+02 1.640840606689453125e+02 1.639038238525390625e+02 1.637552337646484375e+02 1.636777648925781250e+02 1.635510253906250000e+02 1.634991149902343750e+02 1.634562988281250000e+02 1.633836364746093750e+02 1.627328491210937500e+02 1.620566711425781250e+02 1.618341217041015625e+02 1.621197509765625000e+02 1.632989349365234375e+02 1.642516784667968750e+02 1.646153106689453125e+02 1.646471099853515625e+02 1.657557525634765625e+02 1.699071350097656250e+02 1.723552703857421875e+02 1.732814636230468750e+02 1.726979675292968750e+02 1.731352081298828125e+02 1.745704956054687500e+02 1.740097198486328125e+02 1.745025939941406250e+02 1.758321380615234375e+02 1.774046478271484375e+02 1.807496795654296875e+02 1.824445800781250000e+02 1.836952056884765625e+02 1.845903625488281250e+02 1.833955841064453125e+02 1.785895538330078125e+02 1.728543395996093750e+02 1.747791595458984375e+02 1.776226654052734375e+02 1.789425964355468750e+02 1.844853820800781250e+02 1.869126739501953125e+02 1.873673095703125000e+02 1.875554046630859375e+02 1.870351104736328125e+02 1.842015838623046875e+02 1.779998321533203125e+02 1.720077819824218750e+02 1.739382019042968750e+02 1.778673706054687500e+02 1.759589996337890625e+02 1.734844207763671875e+02 1.741279754638671875e+02 1.761133575439453125e+02 1.755897369384765625e+02 1.730668945312500000e+02 1.724059295654296875e+02 1.736522979736328125e+02 1.753285980224609375e+02 1.780732879638671875e+02 1.787520599365234375e+02 1.788472747802734375e+02 1.774212799072265625e+02 1.763571777343750000e+02 1.747922363281250000e+02 1.717239379882812500e+02 1.687193756103515625e+02 1.688054046630859375e+02 1.733834075927734375e+02 1.783684082031250000e+02 1.817102661132812500e+02 1.831423187255859375e+02 1.828667449951171875e+02 1.811180877685546875e+02 1.790798034667968750e+02 1.795359191894531250e+02 1.804579620361328125e+02 1.795274505615234375e+02 1.785764465332031250e+02 1.766646270751953125e+02 1.771716156005859375e+02 1.756613922119140625e+02 1.688128814697265625e+02 1.644382019042968750e+02 1.645706939697265625e+02 1.661430358886718750e+02 1.675114440917968750e+02 1.677523956298828125e+02 1.675030822753906250e+02 1.671090850830078125e+02 1.704860839843750000e+02 1.716118316650390625e+02 1.723674774169921875e+02 1.698985595703125000e+02 1.674122619628906250e+02 1.687353973388671875e+02 1.698536682128906250e+02 1.644203338623046875e+02 1.574431610107421875e+02 1.572246246337890625e+02 1.611218261718750000e+02 1.640830078125000000e+02 1.650965728759765625e+02 1.650937347412109375e+02 1.636350708007812500e+02 1.625467224121093750e+02 1.621400756835937500e+02
1.656350860595703125e+02 1.655417175292968750e+02 1.654835815429687500e+02 1.656026153564453125e+02 1.653486785888671875e+02 1.651985473632812500e+02 1.652928924560546875e+02 1.653172302246093750e+02 1.653611145019531250e+02 1.654087066650390625e+02 1.654421844482421875e+02 1.654416961669921875e+02 1.654832153320312500e+02 1.654885559082031250e+02 1.653243713378906250e+02 1.646511383056640625e+02 1.640728759765625000e+02 1.638434448242187500e+02 1.636915130615234375e+02 1.635444793701171875e+02 1.634204406738281250e+02 1.634001159667968750e+02 1.633412322998046875e+02 1.628871612548828125e+02 1.622484436035156250e+02 1.618282775878906250e+02 1.617491455078125000e+02 1.622415924072265625e+02 1.632300262451171875e+02 1.643741455078125000e+02 1.648628387451171875e+02 1.654869384765625000e+02 1.689575653076171875e+02 1.716188049316406250e+02 1.719090576171875000e+02 1.712372131347656250e+02 1.716251068115234375e+02 1.738579864501953125e+02 1.743303680419921875e+02 1.743235015869140625e+02 1.740341491699218750e+02 1.749640197753906250e+02 1.779806518554687500e+02 1.795262451171875000e+02 1.807146606445312500e+02 1.830229797363281250e+02 1.821136169433593750e+02 1.776091461181640625e+02 1.731879577636718750e+02 1.735845336914062500e+02 1.770535125732421875e+02 1.785154876708984375e+02 1.835507659912109375e+02 1.869334411621093750e+02 1.869561309814453125e+02 1.889372253417968750e+02 1.906917419433593750e+02 1.877927093505859375e+02 1.797706604003906250e+02 1.721403045654296875e+02 1.714635467529296875e+02 1.735736389160156250e+02 1.732602539062500000e+02 1.728218231201171875e+02 1.746514282226562500e+02 1.775872802734375000e+02 1.766876220703125000e+02 1.740702667236328125e+02 1.724025726318359375e+02 1.726111450195312500e+02 1.741848449707031250e+02 1.776149902343750000e+02 1.780510406494140625e+02 1.770167694091796875e+02 1.759723052978515625e+02 1.755176696777343750e+02 1.753077545166015625e+02 1.737949981689453125e+02 1.706309967041015625e+02 1.702289428710937500e+02 1.758823699951171875e+02 1.793502197265625000e+02 1.814961853027343750e+02 1.820177154541015625e+02 1.823290863037109375e+02 1.822200164794921875e+02 1.822093811035156250e+02 1.827095184326171875e+02 1.831307067871093750e+02 1.826115875244140625e+02 1.830305633544921875e+02 1.825070800781250000e+02 1.824506988525390625e+02 1.796877441406250000e+02 1.740240936279296875e+02 1.666951446533203125e+02 1.639721679687500000e+02 1.643512420654296875e+02 1.666897125244140625e+02 1.689043273925781250e+02 1.695743560791015625e+02 1.706336975097656250e+02 1.708604888916015625e+02 1.689800415039062500e+02 1.677279968261718750e+02 1.666975097656250000e+02 1.655776672363281250e+02 1.648500213623046875e+02 1.658527984619140625e+02 1.630744171142578125e+02 1.575723876953125000e+02 1.574036560058593750e+02 1.604991760253906250e+02 1.630861511230468750e+02 1.636514282226562500e+02 1.645739746093750000e+02 1.654958801269531250e+02 1.640876159667968750e+02 1.635425262451171875e+02
1.658501739501953125e+02 1.659663848876953125e+02 1.659998016357421875e+02 1.658899230957031250e+02 1.654619445800781250e+02 1.652643737792968750e+02 1.653102416992187500e+02 1.653811187744140625e+02 1.653733673095703125e+02 1.654070739746093750e+02 1.654257202148437500e+02 1.655143127441406250e+02 1.656451873779296875e+02 1.656727447509765625e+02 1.655995178222656250e+02 1.654072570800781250e+02 1.647445220947265625e+02 1.641128692626953125e+02 1.638571014404296875e+02 1.636550598144531250e+02 1.634353485107421875e+02 1.632774658203125000e+02 1.631414184570312500e+02 1.628445129394531250e+02 1.624124450683593750e+02 1.620990753173828125e+02 1.616183013916015625e+02 1.615925292968750000e+02 1.621984252929687500e+02 1.637252807617187500e+02 1.664942321777343750e+02 1.667253265380859375e+02 1.680615692138671875e+02 1.703349304199218750e+02 1.694577026367187500e+02 1.684775238037109375e+02 1.729317779541015625e+02 1.774570312500000000e+02 1.749421386718750000e+02 1.732537841796875000e+02 1.733832855224609375e+02 1.751314086914062500e+02 1.765185089111328125e+02 1.784139404296875000e+02 1.795731506347656250e+02 1.792771606445312500e+02 1.788345184326171875e+02 1.754416809082031250e+02 1.725634002685546875e+02 1.709246520996093750e+02 1.740585784912109375e+02 1.764647369384765625e+02 1.793743286132812500e+02 1.850062561035156250e+02 1.878479156494140625e+02 1.894522399902343750e+02 1.910618133544921875e+02 1.893419342041015625e+02 1.827255554199218750e+02 1.746144409179687500e+02 1.714020690917968750e+02 1.744865875244140625e+02 1.757696685791015625e+02 1.743262023925781250e+02 1.754201049804687500e+02 1.773797149658203125e+02 1.769218597412109375e+02 1.750375823974609375e+02 1.727281036376953125e+02 1.724008636474609375e+02 1.731080169677734375e+02 1.753987426757812500e+02 1.762384796142578125e+02 1.759288177490234375e+02 1.754142608642578125e+02 1.766578063964843750e+02 1.761258239746093750e+02 1.737843475341796875e+02 1.700633087158203125e+02 1.705952758789062500e+02 1.778037261962890625e+02 1.815714721679687500e+02 1.824824981689453125e+02 1.825831451416015625e+02 1.832359924316406250e+02 1.838025512695312500e+02 1.843757171630859375e+02 1.847810821533203125e+02 1.848309936523437500e+02 1.853887329101562500e+02 1.862816619873046875e+02 1.867460937500000000e+02 1.843378753662109375e+02 1.804526977539062500e+02 1.763725585937500000e+02 1.688386383056640625e+02 1.641852264404296875e+02 1.638063964843750000e+02 1.648272857666015625e+02 1.669754028320312500e+02 1.672614593505859375e+02 1.691462554931640625e+02 1.736843261718750000e+02 1.715117950439453125e+02 1.666303100585937500e+02 1.644143371582031250e+02 1.638053588867187500e+02 1.625352172851562500e+02 1.629387359619140625e+02 1.613824462890625000e+02 1.575357513427734375e+02 1.574240875244140625e+02 1.582913665771484375e+02 1.598237609863281250e+02 1.615438232421875000e+02 1.635380859375000000e+02 1.661356506347656250e+02 1.646514129638671875e+02 1.630560607910156250e+02
1.655627288818359375e+02 1.657254333496093750e+02 1.657842407226562500e+02 1.657450561523437500e+02 1.655664520263671875e+02 1.652768096923828125e+02 1.651365203857421875e+02 1.652537689208984375e+02 1.653652343750000000e+02 1.653437652587890625e+02 1.653344573974609375e+02 1.654160308837890625e+02 1.655974731445312500e+02 1.656739501953125000e+02 1.656264038085937500e+02 1.655982971191406250e+02 1.654438323974609375e+02 1.647790069580078125e+02 1.641410675048828125e+02 1.639101104736328125e+02 1.636018218994140625e+02 1.632765502929687500e+02 1.630675354003906250e+02 1.628723602294921875e+02 1.625839691162109375e+02 1.623008728027343750e+02 1.618215637207031250e+02 1.613716583251953125e+02 1.615821685791015625e+02 1.623925781250000000e+02 1.663427276611328125e+02 1.680676422119140625e+02 1.660858917236328125e+02 1.670560760498046875e+02 1.666518707275390625e+02 1.675048522949218750e+02 1.737920074462890625e+02 1.789182281494140625e+02 1.755322723388671875e+02 1.723158874511718750e+02 1.743805847167968750e+02 1.774020080566406250e+02 1.783393249511718750e+02 1.792991180419921875e+02 1.800304870605468750e+02 1.787572326660156250e+02 1.765214233398437500e+02 1.750844879150390625e+02 1.726359100341796875e+02 1.699440460205078125e+02 1.719200592041015625e+02 1.748755493164062500e+02 1.760054168701171875e+02 1.819239807128906250e+02 1.878047943115234375e+02 1.898958892822265625e+02 1.899174804687500000e+02 1.889711761474609375e+02 1.848218231201171875e+02 1.784900207519531250e+02 1.738102569580078125e+02 1.739658660888671875e+02 1.770238647460937500e+02 1.762875823974609375e+02 1.756295471191406250e+02 1.758529968261718750e+02 1.757093048095703125e+02 1.751070404052734375e+02 1.734181213378906250e+02 1.724081268310546875e+02 1.725824127197265625e+02 1.735031585693359375e+02 1.755079193115234375e+02 1.760320739746093750e+02 1.757233123779296875e+02 1.776592407226562500e+02 1.762854156494140625e+02 1.741041564941406250e+02 1.716625518798828125e+02 1.708393707275390625e+02 1.768645019531250000e+02 1.818967285156250000e+02 1.826536865234375000e+02 1.828028869628906250e+02 1.838803863525390625e+02 1.843081665039062500e+02 1.854649200439453125e+02 1.860714721679687500e+02 1.856430206298828125e+02 1.864832458496093750e+02 1.867659454345703125e+02 1.865507049560546875e+02 1.849354858398437500e+02 1.828475646972656250e+02 1.791468353271484375e+02 1.694460144042968750e+02 1.643941497802734375e+02 1.638585052490234375e+02 1.638084259033203125e+02 1.643935852050781250e+02 1.642120666503906250e+02 1.648762664794921875e+02 1.714127044677734375e+02 1.719750518798828125e+02 1.680160675048828125e+02 1.670315399169921875e+02 1.651098785400390625e+02 1.625875244140625000e+02 1.621256561279296875e+02 1.601835479736328125e+02 1.575375061035156250e+02 1.576684875488281250e+02 1.579859313964843750e+02 1.581800994873046875e+02 1.590319366455078125e+02 1.614429779052734375e+02 1.640716552734375000e+02 1.633939514160156250e+02 1.620531158447265625e+02
1.654946441650390625e+02 1.655959320068359375e+02 1.655659484863281250e+02 1.654574432373046875e+02 1.654315185546875000e+02 1.653126220703125000e+02 1.651541290283203125e+02 1.650890502929687500e+02 1.652190093994140625e+02 1.652700958251953125e+02 1.653117218017578125e+02 1.653450317382812500e+02 1.655344390869140625e+02 1.657176971435546875e+02 1.658407287597656250e+02 1.659091339111328125e+02 1.659062347412109375e+02 1.656366119384765625e+02 1.649739227294921875e+02 1.645387573242187500e+02 1.644402770996093750e+02 1.641507720947265625e+02 1.639221649169921875e+02 1.638627319335937500e+02 1.643192901611328125e+02 1.637973022460937500e+02 1.624080505371093750e+02 1.615125122070312500e+02 1.612220916748046875e+02 1.614741058349609375e+02 1.630857086181640625e+02 1.659235687255859375e+02 1.649423370361328125e+02 1.641677398681640625e+02 1.647854309082031250e+02 1.665657196044921875e+02 1.712229766845703125e+02 1.758348388671875000e+02 1.740012969970703125e+02 1.718250122070312500e+02 1.760170135498046875e+02 1.788877563476562500e+02 1.797547607421875000e+02 1.790107727050781250e+02 1.783899078369140625e+02 1.798876190185546875e+02 1.784679870605468750e+02 1.775237121582031250e+02 1.740607452392578125e+02 1.697750854492187500e+02 1.708043823242187500e+02 1.728722839355468750e+02 1.729429626464843750e+02 1.792659301757812500e+02 1.858418731689453125e+02 1.892985992431640625e+02 1.893495178222656250e+02 1.879393463134765625e+02 1.846979217529296875e+02 1.800422058105468750e+02 1.767446746826171875e+02 1.733533935546875000e+02 1.730693206787109375e+02 1.749335784912109375e+02 1.757504882812500000e+02 1.757079467773437500e+02 1.754109649658203125e+02 1.756036529541015625e+02 1.752246398925781250e+02 1.728740997314453125e+02 1.725016632080078125e+02 1.726762542724609375e+02 1.738465270996093750e+02 1.745645904541015625e+02 1.749165802001953125e+02 1.766214447021484375e+02 1.755318450927734375e+02 1.743376159667968750e+02 1.745038452148437500e+02 1.726569976806640625e+02 1.746241302490234375e+02 1.804324645996093750e+02 1.826164550781250000e+02 1.837232971191406250e+02 1.847748260498046875e+02 1.853702239990234375e+02 1.868122406005859375e+02 1.870589294433593750e+02 1.865466003417968750e+02 1.873942108154296875e+02 1.871510314941406250e+02 1.867817382812500000e+02 1.864951324462890625e+02 1.852561035156250000e+02 1.823687286376953125e+02 1.714739379882812500e+02 1.652414703369140625e+02 1.649122924804687500e+02 1.636828002929687500e+02 1.636018981933593750e+02 1.635479431152343750e+02 1.637385253906250000e+02 1.688999023437500000e+02 1.701803283691406250e+02 1.697015380859375000e+02 1.698135528564453125e+02 1.681626434326171875e+02 1.671036987304687500e+02 1.666145477294921875e+02 1.624716644287109375e+02 1.579417266845703125e+02 1.593477783203125000e+02 1.612279052734375000e+02 1.607566833496093750e+02 1.613149414062500000e+02 1.618231964111328125e+02 1.630909881591796875e+02 1.634953765869140625e+02 1.634093475341796875e+02
1.655050354003906250e+02 1.655280303955078125e+02 1.655436096191406250e+02 1.655233459472656250e+02 1.654536132812500000e+02 1.652932281494140625e+02 1.652993011474609375e+02 1.651647796630859375e+02 1.649701538085937500e+02 1.650334777832031250e+02 1.651763000488281250e+02 1.652995147705078125e+02 1.655089874267578125e+02 1.657684783935546875e+02 1.659258422851562500e+02 1.660661468505859375e+02 1.661180572509765625e+02 1.659374847412109375e+02 1.656567687988281250e+02 1.660373992919921875e+02 1.662819976806640625e+02 1.656954193115234375e+02 1.652906188964843750e+02 1.652993621826171875e+02 1.655409240722656250e+02 1.661363220214843750e+02 1.653339233398437500e+02 1.627514190673828125e+02 1.614062805175781250e+02 1.610755920410156250e+02 1.613472290039062500e+02 1.625587921142578125e+02 1.631193695068359375e+02 1.623783721923828125e+02 1.629564208984375000e+02 1.646963043212890625e+02 1.684197998046875000e+02 1.711832427978515625e+02 1.711848449707031250e+02 1.705793457031250000e+02 1.741672515869140625e+02 1.780538787841796875e+02 1.796142425537109375e+02 1.781735992431640625e+02 1.765120849609375000e+02 1.786876831054687500e+02 1.799106750488281250e+02 1.776546783447265625e+02 1.730195007324218750e+02 1.692133178710937500e+02 1.690849304199218750e+02 1.696979217529296875e+02 1.705480651855468750e+02 1.784945068359375000e+02 1.850941009521484375e+02 1.885792236328125000e+02 1.886523742675781250e+02 1.862044982910156250e+02 1.836734161376953125e+02 1.805474853515625000e+02 1.774792022705078125e+02 1.752090606689453125e+02 1.711964111328125000e+02 1.709880065917968750e+02 1.744888000488281250e+02 1.755229187011718750e+02 1.756642761230468750e+02 1.757177124023437500e+02 1.753815612792968750e+02 1.734655456542968750e+02 1.725380096435546875e+02 1.726057281494140625e+02 1.735700073242187500e+02 1.742158508300781250e+02 1.733311920166015625e+02 1.733052062988281250e+02 1.734275665283203125e+02 1.735151214599609375e+02 1.746481323242187500e+02 1.746996459960937500e+02 1.758670959472656250e+02 1.805319519042968750e+02 1.835051422119140625e+02 1.852450408935546875e+02 1.862110290527343750e+02 1.859721984863281250e+02 1.875186309814453125e+02 1.883502502441406250e+02 1.875879211425781250e+02 1.880378112792968750e+02 1.880567016601562500e+02 1.860257415771484375e+02 1.856803436279296875e+02 1.855099639892578125e+02 1.838669128417968750e+02 1.754130096435546875e+02 1.674725646972656250e+02 1.654187011718750000e+02 1.637934112548828125e+02 1.635546875000000000e+02 1.634922485351562500e+02 1.643560791015625000e+02 1.687186889648437500e+02 1.693130798339843750e+02 1.720514526367187500e+02 1.754858703613281250e+02 1.756544799804687500e+02 1.746133117675781250e+02 1.707912292480468750e+02 1.627989196777343750e+02 1.580199890136718750e+02 1.595803527832031250e+02 1.636439819335937500e+02 1.644934692382812500e+02 1.666733398437500000e+02 1.683012237548828125e+02 1.686670379638671875e+02 1.687993164062500000e+02 1.684966430664062500e+02
1.656778869628906250e+02 1.655696411132812500e+02 1.654120788574218750e+02 1.653597259521484375e+02 1.653653259277343750e+02 1.652981262207031250e+02 1.653037872314453125e+02 1.652416381835937500e+02 1.650970153808593750e+02 1.649407653808593750e+02 1.650435485839843750e+02 1.651220092773437500e+02 1.652993164062500000e+02 1.655656738281250000e+02 1.657739715576171875e+02 1.659212799072265625e+02 1.659694519042968750e+02 1.657300109863281250e+02 1.656242828369140625e+02 1.684693298339843750e+02 1.685158233642578125e+02 1.670878143310546875e+02 1.659822235107421875e+02 1.657340393066406250e+02 1.655323486328125000e+02 1.654679107666015625e+02 1.675043029785156250e+02 1.660700073242187500e+02 1.629501342773437500e+02 1.612377014160156250e+02 1.609023284912109375e+02 1.610989227294921875e+02 1.615127105712890625e+02 1.618232421875000000e+02 1.626944732666015625e+02 1.651822052001953125e+02 1.675884857177734375e+02 1.685354309082031250e+02 1.691326904296875000e+02 1.692969207763671875e+02 1.711292114257812500e+02 1.760953979492187500e+02 1.790979156494140625e+02 1.787447814941406250e+02 1.772359924316406250e+02 1.776901245117187500e+02 1.791803894042968750e+02 1.747673950195312500e+02 1.706245269775390625e+02 1.687972412109375000e+02 1.686877441406250000e+02 1.689017944335937500e+02 1.703852539062500000e+02 1.798151245117187500e+02 1.865045928955078125e+02 1.896781616210937500e+02 1.886470642089843750e+02 1.861462402343750000e+02 1.835313110351562500e+02 1.798121643066406250e+02 1.770112762451171875e+02 1.749148712158203125e+02 1.713292694091796875e+02 1.700551452636718750e+02 1.737307891845703125e+02 1.748420410156250000e+02 1.755773773193359375e+02 1.756480865478515625e+02 1.754421844482421875e+02 1.747651214599609375e+02 1.732093963623046875e+02 1.724382324218750000e+02 1.729648590087890625e+02 1.736618652343750000e+02 1.722682952880859375e+02 1.716168823242187500e+02 1.716346435546875000e+02 1.722012786865234375e+02 1.728126678466796875e+02 1.736967926025390625e+02 1.764545593261718750e+02 1.832053985595703125e+02 1.861222076416015625e+02 1.865953063964843750e+02 1.864382629394531250e+02 1.863524475097656250e+02 1.877756347656250000e+02 1.891321868896484375e+02 1.885195770263671875e+02 1.889287109375000000e+02 1.905193634033203125e+02 1.871624603271484375e+02 1.849399108886718750e+02 1.844016723632812500e+02 1.818606567382812500e+02 1.768180999755859375e+02 1.689715576171875000e+02 1.648694763183593750e+02 1.637000579833984375e+02 1.635194702148437500e+02 1.634546813964843750e+02 1.642098388671875000e+02 1.675887451171875000e+02 1.685720672607421875e+02 1.720776062011718750e+02 1.772787170410156250e+02 1.784573211669921875e+02 1.755384979248046875e+02 1.693982849121093750e+02 1.611991271972656250e+02 1.578930053710937500e+02 1.591698455810546875e+02 1.640620117187500000e+02 1.678686218261718750e+02 1.719232025146484375e+02 1.752982940673828125e+02 1.740085144042968750e+02 1.732406158447265625e+02 1.715525817871093750e+02
1.657885742187500000e+02 1.658021850585937500e+02 1.656096496582031250e+02 1.655014343261718750e+02 1.653609924316406250e+02 1.652850952148437500e+02 1.651930541992187500e+02 1.651568603515625000e+02 1.652086181640625000e+02 1.651043853759765625e+02 1.650478057861328125e+02 1.649762268066406250e+02 1.649170532226562500e+02 1.651149444580078125e+02 1.653976898193359375e+02 1.655650329589843750e+02 1.657226104736328125e+02 1.654522094726562500e+02 1.655697326660156250e+02 1.692054901123046875e+02 1.716582794189453125e+02 1.702863311767578125e+02 1.674676361083984375e+02 1.664990539550781250e+02 1.656976013183593750e+02 1.650146026611328125e+02 1.662831268310546875e+02 1.677169189453125000e+02 1.647555236816406250e+02 1.619578704833984375e+02 1.609061126708984375e+02 1.607538146972656250e+02 1.610540771484375000e+02 1.617467193603515625e+02 1.628370513916015625e+02 1.667332611083984375e+02 1.685475463867187500e+02 1.683695678710937500e+02 1.693274841308593750e+02 1.695029602050781250e+02 1.703037872314453125e+02 1.732595520019531250e+02 1.777845764160156250e+02 1.789652709960937500e+02 1.767623291015625000e+02 1.745389099121093750e+02 1.763520202636718750e+02 1.733924102783203125e+02 1.694701995849609375e+02 1.700536346435546875e+02 1.694597625732421875e+02 1.703326721191406250e+02 1.715211029052734375e+02 1.802931976318359375e+02 1.875082550048828125e+02 1.892167510986328125e+02 1.878712310791015625e+02 1.853051910400390625e+02 1.820477905273437500e+02 1.771523742675781250e+02 1.747467498779296875e+02 1.729360504150390625e+02 1.698573760986328125e+02 1.705528564453125000e+02 1.739842529296875000e+02 1.750050048828125000e+02 1.753263549804687500e+02 1.756962280273437500e+02 1.752098236083984375e+02 1.746688079833984375e+02 1.743540954589843750e+02 1.737190856933593750e+02 1.721431884765625000e+02 1.717154541015625000e+02 1.718233947753906250e+02 1.715585632324218750e+02 1.703765716552734375e+02 1.697394714355468750e+02 1.699515991210937500e+02 1.709465026855468750e+02 1.730550842285156250e+02 1.806017913818359375e+02 1.869348907470703125e+02 1.883815002441406250e+02 1.875494232177734375e+02 1.869486694335937500e+02 1.877342071533203125e+02 1.885612030029296875e+02 1.889204101562500000e+02 1.896500091552734375e+02 1.908397979736328125e+02 1.884358520507812500e+02 1.855978851318359375e+02 1.831675109863281250e+02 1.805409851074218750e+02 1.779129486083984375e+02 1.723265075683593750e+02 1.669944305419921875e+02 1.638061065673828125e+02 1.634765777587890625e+02 1.634381561279296875e+02 1.635580749511718750e+02 1.649386138916015625e+02 1.659800109863281250e+02 1.695422515869140625e+02 1.754614257812500000e+02 1.755880889892578125e+02 1.702102813720703125e+02 1.642040557861328125e+02 1.594419860839843750e+02 1.580896301269531250e+02 1.600557098388671875e+02 1.666139831542968750e+02 1.714977722167968750e+02 1.776262969970703125e+02 1.806249389648437500e+02 1.774202423095703125e+02 1.773875427246093750e+02 1.763605041503906250e+02
1.657417755126953125e+02 1.659450073242187500e+02 1.658251647949218750e+02 1.656587524414062500e+02 1.656171875000000000e+02 1.655148925781250000e+02 1.653635406494140625e+02 1.652640380859375000e+02 1.652798156738281250e+02 1.652166137695312500e+02 1.651186981201171875e+02 1.650074005126953125e+02 1.648017120361328125e+02 1.647984771728515625e+02 1.649934692382812500e+02 1.652625885009765625e+02 1.654612731933593750e+02 1.653711547851562500e+02 1.661383819580078125e+02 1.717641906738281250e+02 1.752558441162109375e+02 1.742875366210937500e+02 1.698024139404296875e+02 1.675163726806640625e+02 1.660396728515625000e+02 1.650215759277343750e+02 1.648102111816406250e+02 1.665499725341796875e+02 1.656701660156250000e+02 1.629494781494140625e+02 1.612953643798828125e+02 1.606577453613281250e+02 1.609544677734375000e+02 1.610216674804687500e+02 1.615707244873046875e+02 1.637347259521484375e+02 1.662958679199218750e+02 1.671410980224609375e+02 1.693440246582031250e+02 1.706310119628906250e+02 1.714881744384765625e+02 1.716837615966796875e+02 1.745651702880859375e+02 1.772669525146484375e+02 1.750855102539062500e+02 1.716873168945312500e+02 1.723673553466796875e+02 1.707277526855468750e+02 1.673574676513671875e+02 1.683739776611328125e+02 1.714061431884765625e+02 1.738533630371093750e+02 1.726723175048828125e+02 1.772583160400390625e+02 1.847142639160156250e+02 1.866868286132812500e+02 1.858506317138671875e+02 1.834393768310546875e+02 1.797503967285156250e+02 1.749425048828125000e+02 1.715829772949218750e+02 1.700041656494140625e+02 1.685993041992187500e+02 1.705983886718750000e+02 1.733387145996093750e+02 1.742282867431640625e+02 1.740717468261718750e+02 1.748529052734375000e+02 1.745565032958984375e+02 1.735136718750000000e+02 1.735203704833984375e+02 1.738305206298828125e+02 1.721807098388671875e+02 1.714748077392578125e+02 1.715187072753906250e+02 1.702616882324218750e+02 1.689479522705078125e+02 1.682312469482421875e+02 1.679257659912109375e+02 1.682870025634765625e+02 1.700355529785156250e+02 1.753997497558593750e+02 1.836919250488281250e+02 1.879456024169921875e+02 1.881371917724609375e+02 1.872041320800781250e+02 1.868451080322265625e+02 1.871890563964843750e+02 1.874474487304687500e+02 1.883521575927734375e+02 1.894276885986328125e+02 1.876761169433593750e+02 1.859593353271484375e+02 1.831639556884765625e+02 1.804319915771484375e+02 1.785794372558593750e+02 1.742256927490234375e+02 1.690713500976562500e+02 1.643726196289062500e+02 1.634049530029296875e+02 1.634116210937500000e+02 1.635340576171875000e+02 1.635495452880859375e+02 1.647813110351562500e+02 1.685089874267578125e+02 1.722457275390625000e+02 1.702075958251953125e+02 1.651590118408203125e+02 1.630844116210937500e+02 1.618089141845703125e+02 1.596622924804687500e+02 1.614007873535156250e+02 1.681176910400390625e+02 1.724361877441406250e+02 1.794312438964843750e+02 1.832263946533203125e+02 1.802925720214843750e+02 1.801925048828125000e+02 1.801849365234375000e+02
1.657372283935546875e+02 1.660732269287109375e+02 1.660647277832031250e+02 1.657498016357421875e+02 1.656761932373046875e+02 1.656261291503906250e+02 1.654570159912109375e+02 1.653136901855468750e+02 1.652496337890625000e+02 1.651587677001953125e+02 1.651151123046875000e+02 1.650281372070312500e+02 1.648119354248046875e+02 1.646947174072265625e+02 1.646819152832031250e+02 1.649478302001953125e+02 1.652430267333984375e+02 1.653752136230468750e+02 1.660267028808593750e+02 1.708047637939453125e+02 1.749359741210937500e+02 1.754032592773437500e+02 1.731725769042968750e+02 1.697391052246093750e+02 1.670113677978515625e+02 1.651797637939453125e+02 1.643485565185546875e+02 1.650188751220703125e+02 1.653409729003906250e+02 1.628548736572265625e+02 1.611216888427734375e+02 1.605163574218750000e+02 1.610445709228515625e+02 1.606236114501953125e+02 1.610327453613281250e+02 1.615728454589843750e+02 1.632773437500000000e+02 1.669974517822265625e+02 1.693447113037109375e+02 1.705416717529296875e+02 1.713843994140625000e+02 1.701222991943359375e+02 1.709333648681640625e+02 1.733249969482421875e+02 1.724736022949218750e+02 1.690406646728515625e+02 1.673988189697265625e+02 1.663636474609375000e+02 1.649651489257812500e+02 1.652973327636718750e+02 1.695852813720703125e+02 1.738700103759765625e+02 1.742714233398437500e+02 1.749994964599609375e+02 1.800583496093750000e+02 1.825444641113281250e+02 1.823218231201171875e+02 1.812893066406250000e+02 1.779168090820312500e+02 1.733206634521484375e+02 1.693131103515625000e+02 1.683083343505859375e+02 1.681974029541015625e+02 1.688428497314453125e+02 1.709992828369140625e+02 1.720812530517578125e+02 1.722669982910156250e+02 1.726764678955078125e+02 1.729925231933593750e+02 1.734496459960937500e+02 1.731818084716796875e+02 1.729288024902343750e+02 1.723674163818359375e+02 1.719537658691406250e+02 1.721427917480468750e+02 1.702593841552734375e+02 1.681454315185546875e+02 1.677973022460937500e+02 1.676161499023437500e+02 1.676236724853515625e+02 1.687034606933593750e+02 1.722021942138671875e+02 1.790551452636718750e+02 1.854312286376953125e+02 1.868669281005859375e+02 1.859823913574218750e+02 1.855096130371093750e+02 1.851851501464843750e+02 1.848447723388671875e+02 1.854085388183593750e+02 1.870850524902343750e+02 1.866885528564453125e+02 1.844863281250000000e+02 1.824477233886718750e+02 1.796317138671875000e+02 1.785864257812500000e+02 1.754738616943359375e+02 1.702490386962890625e+02 1.650516510009765625e+02 1.633588256835937500e+02 1.634007568359375000e+02 1.642139129638671875e+02 1.636392211914062500e+02 1.655067901611328125e+02 1.686711578369140625e+02 1.693224334716796875e+02 1.664054870605468750e+02 1.647426300048828125e+02 1.661945495605468750e+02 1.661556854248046875e+02 1.618916778564453125e+02 1.607176818847656250e+02 1.659363403320312500e+02 1.703472442626953125e+02 1.764376525878906250e+02 1.826616363525390625e+02 1.828546905517578125e+02 1.823980102539062500e+02 1.816233978271484375e+02
1.657265625000000000e+02 1.661693267822265625e+02 1.662776794433593750e+02 1.659155273437500000e+02 1.657959899902343750e+02 1.657328796386718750e+02 1.655374908447265625e+02 1.653224182128906250e+02 1.652139129638671875e+02 1.651205139160156250e+02 1.650990905761718750e+02 1.650859985351562500e+02 1.648798065185546875e+02 1.646932067871093750e+02 1.645263519287109375e+02 1.647032928466796875e+02 1.650268249511718750e+02 1.652427215576171875e+02 1.655227050781250000e+02 1.673266143798828125e+02 1.709953308105468750e+02 1.738377685546875000e+02 1.741442718505859375e+02 1.722789611816406250e+02 1.699137268066406250e+02 1.664980010986328125e+02 1.640631561279296875e+02 1.640416412353515625e+02 1.649091644287109375e+02 1.634758605957031250e+02 1.611278533935546875e+02 1.603802642822265625e+02 1.603680572509765625e+02 1.604253540039062500e+02 1.608810882568359375e+02 1.615148162841796875e+02 1.638426208496093750e+02 1.687288208007812500e+02 1.718938903808593750e+02 1.716515808105468750e+02 1.701303710937500000e+02 1.688089752197265625e+02 1.700390319824218750e+02 1.717799987792968750e+02 1.700111846923828125e+02 1.658441009521484375e+02 1.634035949707031250e+02 1.631735534667968750e+02 1.631598052978515625e+02 1.640850830078125000e+02 1.673921966552734375e+02 1.708356475830078125e+02 1.736868743896484375e+02 1.744776153564453125e+02 1.756904602050781250e+02 1.781003112792968750e+02 1.787894287109375000e+02 1.783365173339843750e+02 1.757461242675781250e+02 1.715554656982421875e+02 1.684437103271484375e+02 1.679996643066406250e+02 1.679697570800781250e+02 1.682889862060546875e+02 1.690003051757812500e+02 1.702994384765625000e+02 1.713558197021484375e+02 1.714237365722656250e+02 1.719760284423828125e+02 1.729173583984375000e+02 1.730545349121093750e+02 1.729915771484375000e+02 1.731240081787109375e+02 1.721973266601562500e+02 1.719941864013671875e+02 1.708565826416015625e+02 1.682191314697265625e+02 1.676358795166015625e+02 1.675913085937500000e+02 1.675912933349609375e+02 1.676798706054687500e+02 1.685710601806640625e+02 1.716604614257812500e+02 1.769858398437500000e+02 1.815329284667968750e+02 1.825592803955078125e+02 1.825291900634765625e+02 1.824848785400390625e+02 1.814780578613281250e+02 1.815621795654296875e+02 1.844506378173828125e+02 1.861401062011718750e+02 1.844240875244140625e+02 1.814887847900390625e+02 1.781785278320312500e+02 1.769770660400390625e+02 1.750718841552734375e+02 1.700054321289062500e+02 1.648267059326171875e+02 1.633377685546875000e+02 1.633474426269531250e+02 1.637306671142578125e+02 1.636842651367187500e+02 1.651764068603515625e+02 1.667723236083984375e+02 1.654519500732421875e+02 1.637881317138671875e+02 1.642753906250000000e+02 1.666376495361328125e+02 1.670708770751953125e+02 1.636112213134765625e+02 1.601650085449218750e+02 1.637456359863281250e+02 1.683511352539062500e+02 1.731862945556640625e+02 1.808488769531250000e+02 1.835269622802734375e+02 1.832083282470703125e+02 1.815892333984375000e+02
