ncols         116
nrows         32
xllcorner     383300
yllcorner     7543334
cellsize      16
NODATA_value  -9999
2.879082000000000221e+02 2.876456999999999766e+02 2.877153000000000134e+02 2.877513000000000147e+02 2.877296999999999798e+02 2.875980999999999881e+02 2.876329999999999814e+02 2.880081000000000131e+02 2.889406000000000176e+02 2.890742999999999938e+02 2.888213999999999828e+02 2.891401000000000181e+02 2.893358000000000061e+02 2.898872000000000071e+02 2.903308999999999855e+02 2.909420999999999822e+02 2.921299999999999955e+02 2.926462000000000216e+02 2.925788000000000011e+02 2.915590000000000259e+02 2.909780000000000086e+02 2.897391000000000076e+02 2.896302999999999770e+02 2.896302999999999770e+02 2.887833999999999719e+02 2.888801000000000272e+02 2.889089000000000169e+02 2.891116000000000099e+02 2.884456000000000131e+02 2.852812000000000126e+02 2.847690000000000055e+02 2.842851999999999748e+02 2.839470000000000027e+02 2.836023999999999887e+02 2.836222999999999956e+02 2.833023000000000025e+02 2.831243000000000052e+02 2.826019000000000005e+02 2.823360999999999876e+02 2.827961999999999989e+02 2.835797999999999774e+02 2.847610999999999990e+02 2.868962000000000216e+02 2.886825999999999794e+02 2.917250000000000227e+02 2.936306000000000154e+02 2.965622000000000185e+02 2.987454999999999927e+02 3.017604000000000042e+02 3.039126999999999725e+02 3.064381999999999948e+02 3.086485999999999876e+02 3.109653000000000134e+02 3.131250999999999749e+02 3.151772000000000276e+02 3.173450000000000273e+02 3.188860000000000241e+02 3.199438999999999851e+02 3.210745000000000005e+02 3.224657000000000266e+02 3.239033999999999764e+02 3.253881999999999834e+02 3.269646000000000186e+02 3.281537999999999897e+02 3.295335999999999785e+02 3.311179999999999950e+02 3.327373999999999796e+02 3.345341000000000236e+02 3.357756999999999721e+02 3.366714999999999804e+02 3.376105999999999767e+02 3.384306000000000267e+02 3.394236000000000217e+02 3.405649000000000228e+02 3.418294999999999959e+02 3.428428999999999860e+02 3.437923999999999864e+02 3.445147999999999797e+02 3.450409999999999968e+02 3.457259000000000242e+02 3.463102999999999838e+02 3.471333999999999946e+02 3.479313999999999965e+02 3.488346000000000231e+02 3.498482000000000198e+02 3.497823000000000206e+02 3.497767999999999802e+02 3.497737000000000194e+02 3.496435999999999922e+02 3.494947999999999979e+02 3.493605000000000018e+02 -9.999000000000000000e+03 -9.999000000000000000e+03 -9.999000000000000000e+03 -9.999000000000000000e+03 -9.999000000000000000e+03 -9.999000000000000000e+03 -9.999000000000000000e+03 -9.999000000000000000e+03 -9.999000000000000000e+03 -9.999000000000000000e+03 -9.999000000000000000e+03 -9.999000000000000000e+03 -9.999000000000000000e+03 -9.999000000000000000e+03 -9.999000000000000000e+03 -9.999000000000000000e+03 -9.999000000000000000e+03 -9.999000000000000000e+03 -9.999000000000000000e+03 -9.999000000000000000e+03 -9.999000000000000000e+03 -9.999000000000000000e+03 -9.999000000000000000e+03 -9.999000000000000000e+03 -9.999000000000000000e+03
2.881032999999999902e+02 2.878125999999999749e+02 2.878767000000000280e+02 2.880094000000000278e+02 2.882178000000000111e+02 2.881476000000000113e+02 2.882257000000000176e+02 2.887210999999999785e+02 2.895042000000000257e+02 2.892119999999999891e+02 2.892221000000000117e+02 2.895199999999999818e+02 2.897855999999999881e+02 2.900701999999999998e+02 2.909843999999999937e+02 2.921503999999999905e+02 2.928389000000000237e+02 2.925396000000000072e+02 2.921236999999999853e+02 2.914327999999999861e+02 2.908217999999999961e+02 2.903516999999999939e+02 2.903346000000000231e+02 2.910835999999999899e+02 2.893124000000000251e+02 2.892699000000000069e+02 2.888571999999999775e+02 2.886073999999999842e+02 2.879347999999999956e+02 2.860419999999999732e+02 2.848659000000000106e+02 2.844673000000000229e+02 2.840847999999999729e+02 2.839959999999999809e+02 2.839148999999999887e+02 2.838102999999999838e+02 2.832971000000000004e+02 2.827889999999999873e+02 2.827943000000000211e+02 2.828946000000000254e+02 2.836977999999999724e+02 2.849241999999999848e+02 2.867932000000000130e+02 2.889533000000000129e+02 2.921327999999999747e+02 2.939243000000000166e+02 2.964261000000000195e+02 2.988398000000000252e+02 3.016163000000000238e+02 3.041711999999999989e+02 3.067296999999999798e+02 3.091290000000000191e+02 3.113833999999999946e+02 3.135217999999999847e+02 3.156121999999999730e+02 3.174553000000000225e+02 3.190606000000000222e+02 3.205468000000000188e+02 3.214988999999999919e+02 3.226397000000000048e+02 3.238469999999999800e+02 3.256879999999999882e+02 3.274139000000000124e+02 3.285650999999999726e+02 3.298147000000000162e+02 3.313052000000000135e+02 3.328716999999999757e+02 3.344166000000000167e+02 3.357312000000000012e+02 3.367975000000000136e+02 3.378854999999999791e+02 3.388749000000000251e+02 3.397056999999999789e+02 3.406159999999999854e+02 3.414408000000000243e+02 3.425873000000000275e+02 3.436175000000000068e+02 3.441936000000000035e+02 3.447259999999999991e+02 3.454211999999999989e+02 3.463595000000000255e+02 3.472117000000000075e+02 3.481449000000000069e+02 3.490923000000000229e+02 3.497833999999999719e+02 3.501865000000000236e+02 3.500529000000000224e+02 3.502620000000000005e+02 3.496290999999999940e+02 3.493938999999999737e+02 3.492287999999999784e+02 -9.999000000000000000e+03 -9.999000000000000000e+03 -9.999000000000000000e+03 -9.999000000000000000e+03 -9.999000000000000000e+03 -9.999000000000000000e+03 -9.999000000000000000e+03 -9.999000000000000000e+03 -9.999000000000000000e+03 -9.999000000000000000e+03 -9.999000000000000000e+03 -9.999000000000000000e+03 -9.999000000000000000e+03 -9.999000000000000000e+03 -9.999000000000000000e+03 -9.999000000000000000e+03 -9.999000000000000000e+03 -9.999000000000000000e+03 -9.999000000000000000e+03 -9.999000000000000000e+03 -9.999000000000000000e+03 -9.999000000000000000e+03 -9.999000000000000000e+03 -9.999000000000000000e+03 -9.999000000000000000e+03
2.882094999999999914e+02 2.880640000000000214e+02 2.882400000000000091e+02 2.884823000000000093e+02 2.887271000000000072e+02 2.886612000000000080e+02 2.887151000000000067e+02 2.893867999999999938e+02 2.901114999999999782e+02 2.895880999999999972e+02 2.896096999999999753e+02 2.900110000000000241e+02 2.904728999999999814e+02 2.905545000000000186e+02 2.924814000000000078e+02 2.925726999999999975e+02 2.925267999999999802e+02 2.924248000000000047e+02 2.916648000000000138e+02 2.912506000000000199e+02 2.907067999999999870e+02 2.905611000000000104e+02 2.916772000000000276e+02 2.912038000000000011e+02 2.890353000000000065e+02 2.887149999999999750e+02 2.887149999999999750e+02 2.885742000000000189e+02 2.884187999999999761e+02 2.862470999999999890e+02 2.852330000000000041e+02 2.850443000000000211e+02 2.846077999999999975e+02 2.843684999999999832e+02 2.842112999999999943e+02 2.841234999999999786e+02 2.838645000000000209e+02 2.832309000000000196e+02 2.829828999999999724e+02 2.831234000000000037e+02 2.841055999999999813e+02 2.850563000000000216e+02 2.868353000000000179e+02 2.890040000000000191e+02 2.924044000000000096e+02 2.940806000000000040e+02 2.962171000000000163e+02 2.992690000000000055e+02 3.017742999999999824e+02 3.045869000000000142e+02 3.069624000000000024e+02 3.093926999999999907e+02 3.117993000000000166e+02 3.140627000000000066e+02 3.158102000000000089e+02 3.177171000000000163e+02 3.194662000000000148e+02 3.209716000000000236e+02 3.218113000000000170e+02 3.230676000000000272e+02 3.244771000000000072e+02 3.259211000000000240e+02 3.273514999999999873e+02 3.287058999999999855e+02 3.298915999999999826e+02 3.312714000000000283e+02 3.329977000000000089e+02 3.344918999999999869e+02 3.355785999999999945e+02 3.368645000000000209e+02 3.379209000000000174e+02 3.389977000000000089e+02 3.397885999999999740e+02 3.405251999999999839e+02 3.412568999999999733e+02 3.420785999999999945e+02 3.430622999999999934e+02 3.436938000000000102e+02 3.447665999999999826e+02 3.456055000000000064e+02 3.463675999999999817e+02 3.473630999999999744e+02 3.481331999999999880e+02 3.490233999999999810e+02 3.497882000000000176e+02 3.502998000000000047e+02 3.503919999999999959e+02 3.501277999999999793e+02 3.498627999999999929e+02 3.492739000000000260e+02 3.490495000000000232e+02 -9.999000000000000000e+03 -9.999000000000000000e+03 -9.999000000000000000e+03 -9.999000000000000000e+03 -9.999000000000000000e+03 -9.999000000000000000e+03 -9.999000000000000000e+03 -9.999000000000000000e+03 -9.999000000000000000e+03 -9.999000000000000000e+03 -9.999000000000000000e+03 -9.999000000000000000e+03 -9.999000000000000000e+03 -9.999000000000000000e+03 -9.999000000000000000e+03 -9.999000000000000000e+03 -9.999000000000000000e+03 -9.999000000000000000e+03 -9.999000000000000000e+03 -9.999000000000000000e+03 -9.999000000000000000e+03 -9.999000000000000000e+03 -9.999000000000000000e+03 -9.999000000000000000e+03 -9.999000000000000000e+03
2.885822000000000003e+02 2.885276000000000067e+02 2.887774999999999750e+02 2.892418999999999869e+02 2.892402000000000157e+02 2.892386000000000195e+02 2.892035999999999945e+02 2.900029999999999859e+02 2.904286000000000172e+02 2.901098000000000070e+02 2.901372999999999820e+02 2.906055000000000064e+02 2.907126999999999839e+02 2.915570000000000164e+02 2.932198000000000206e+02 2.924243000000000166e+02 2.923464999999999918e+02 2.921360000000000241e+02 2.916535999999999831e+02 2.913600999999999885e+02 2.907067999999999870e+02 2.909950999999999794e+02 2.919454999999999814e+02 2.888675999999999817e+02 2.887149999999999750e+02 2.887149999999999750e+02 2.887414999999999736e+02 2.889615000000000009e+02 2.878727999999999838e+02 2.864098000000000184e+02 2.855183000000000106e+02 2.852402000000000157e+02 2.851295000000000073e+02 2.849322999999999979e+02 2.844291999999999803e+02 2.843552000000000248e+02 2.841859999999999786e+02 2.838222000000000094e+02 2.833444000000000074e+02 2.832490999999999985e+02 2.842490999999999985e+02 2.852961000000000240e+02 2.867450000000000045e+02 2.887112999999999943e+02 2.921154000000000224e+02 2.940788000000000011e+02 2.971313000000000102e+02 2.992585000000000264e+02 3.014517999999999915e+02 3.045410999999999717e+02 3.074384999999999764e+02 3.100190999999999804e+02 3.122678000000000225e+02 3.146191999999999780e+02 3.162567000000000235e+02 3.180165000000000077e+02 3.194592999999999847e+02 3.209789999999999850e+02 3.223643000000000143e+02 3.236976999999999975e+02 3.249246999999999730e+02 3.259854000000000269e+02 3.275169999999999959e+02 3.288781000000000176e+02 3.301089000000000055e+02 3.317776999999999816e+02 3.329956999999999994e+02 3.343131999999999948e+02 3.354542000000000144e+02 3.367753999999999905e+02 3.376777000000000157e+02 3.385908000000000015e+02 3.394519999999999982e+02 3.402719000000000165e+02 3.409832000000000107e+02 3.417939000000000078e+02 3.430258000000000038e+02 3.439705000000000155e+02 3.449651000000000067e+02 3.457194000000000074e+02 3.466652000000000271e+02 3.474868000000000166e+02 3.482266999999999939e+02 3.491252999999999815e+02 3.498629999999999995e+02 3.502380999999999744e+02 3.504859000000000151e+02 3.501956999999999880e+02 3.496306000000000154e+02 3.491949000000000183e+02 3.490686000000000035e+02 -9.999000000000000000e+03 -9.999000000000000000e+03 -9.999000000000000000e+03 -9.999000000000000000e+03 -9.999000000000000000e+03 -9.999000000000000000e+03 -9.999000000000000000e+03 -9.999000000000000000e+03 -9.999000000000000000e+03 -9.999000000000000000e+03 -9.999000000000000000e+03 -9.999000000000000000e+03 -9.999000000000000000e+03 -9.999000000000000000e+03 -9.999000000000000000e+03 -9.999000000000000000e+03 -9.999000000000000000e+03 -9.999000000000000000e+03 -9.999000000000000000e+03 -9.999000000000000000e+03 -9.999000000000000000e+03 -9.999000000000000000e+03 -9.999000000000000000e+03 -9.999000000000000000e+03 -9.999000000000000000e+03
2.889585000000000150e+02 2.889927000000000135e+02 2.894085000000000036e+02 2.897015000000000100e+02 2.898041000000000054e+02 2.897497000000000185e+02 2.899393999999999778e+02 2.905561000000000149e+02 2.910160999999999945e+02 2.905256999999999721e+02 2.907857000000000198e+02 2.910276000000000067e+02 2.912764999999999986e+02 2.934737999999999829e+02 2.928473999999999933e+02 2.924546000000000276e+02 2.922995999999999981e+02 2.921215000000000259e+02 2.919427000000000021e+02 2.911064000000000078e+02 2.907187999999999874e+02 2.907493000000000052e+02 2.914402000000000044e+02 2.889343000000000075e+02 2.887248999999999910e+02 2.887384999999999877e+02 2.887384999999999877e+02 2.889207000000000107e+02 2.876329999999999814e+02 2.864717999999999734e+02 2.857409999999999854e+02 2.854123999999999910e+02 2.852126000000000090e+02 2.851299000000000206e+02 2.847320000000000277e+02 2.844703999999999837e+02 2.843924999999999841e+02 2.842780999999999949e+02 2.839610000000000127e+02 2.836025999999999954e+02 2.843888999999999783e+02 2.856506999999999721e+02 2.870113999999999805e+02 2.890595000000000141e+02 2.918883000000000152e+02 2.943772999999999911e+02 2.969218000000000188e+02 2.989723999999999933e+02 3.015355999999999881e+02 3.043328000000000202e+02 3.073439000000000192e+02 3.103958000000000084e+02 3.125389000000000124e+02 3.150024000000000228e+02 3.168129999999999882e+02 3.185043999999999755e+02 3.199182999999999879e+02 3.212563000000000102e+02 3.226523000000000252e+02 3.240466999999999871e+02 3.251096000000000004e+02 3.264205000000000041e+02 3.276422999999999774e+02 3.289567999999999870e+02 3.306204000000000178e+02 3.320292000000000030e+02 3.334390999999999963e+02 3.343000999999999863e+02 3.352320000000000277e+02 3.366557000000000244e+02 3.374784000000000219e+02 3.381245000000000118e+02 3.390083999999999946e+02 3.399485000000000241e+02 3.410253000000000156e+02 3.422524999999999977e+02 3.432352999999999952e+02 3.441313999999999851e+02 3.450910000000000082e+02 3.459490000000000123e+02 3.467176999999999794e+02 3.474515000000000100e+02 3.483065000000000282e+02 3.490265999999999735e+02 3.497090999999999781e+02 3.502092000000000098e+02 3.502316999999999894e+02 3.501797000000000253e+02 3.495271999999999935e+02 3.490781000000000063e+02 3.493389000000000237e+02 3.491940000000000168e+02 3.490081000000000131e+02 -9.999000000000000000e+03 -9.999000000000000000e+03 -9.999000000000000000e+03 -9.999000000000000000e+03 -9.999000000000000000e+03 -9.999000000000000000e+03 -9.999000000000000000e+03 -9.999000000000000000e+03 -9.999000000000000000e+03 -9.999000000000000000e+03 -9.999000000000000000e+03 -9.999000000000000000e+03 -9.999000000000000000e+03 -9.999000000000000000e+03 -9.999000000000000000e+03 -9.999000000000000000e+03 -9.999000000000000000e+03 -9.999000000000000000e+03 -9.999000000000000000e+03 -9.999000000000000000e+03 -9.999000000000000000e+03 -9.999000000000000000e+03 -9.999000000000000000e+03
2.891691000000000145e+02 2.893371999999999957e+02 2.901268999999999778e+02 2.902801000000000045e+02 2.903032000000000039e+02 2.904823000000000093e+02 2.905489999999999782e+02 2.912953999999999724e+02 2.913242000000000189e+02 2.910102999999999724e+02 2.913125999999999749e+02 2.915034999999999741e+02 2.921793000000000120e+02 2.937536999999999807e+02 2.924533999999999878e+02 2.924379000000000133e+02 2.924284000000000106e+02 2.921741000000000099e+02 2.916274000000000228e+02 2.911284999999999741e+02 2.909078000000000088e+02 2.908999999999999773e+02 2.911630999999999858e+02 2.896139000000000010e+02 2.893378000000000156e+02 2.893122999999999934e+02 2.887384999999999877e+02 2.893544999999999732e+02 2.877405999999999722e+02 2.866732000000000085e+02 2.859678000000000111e+02 2.855815000000000055e+02 2.853467999999999734e+02 2.852278000000000020e+02 2.850129000000000019e+02 2.846963999999999828e+02 2.846152999999999906e+02 2.845033000000000243e+02 2.842939000000000078e+02 2.839250000000000114e+02 2.844309000000000083e+02 2.861243000000000052e+02 2.877649000000000115e+02 2.899728000000000065e+02 2.918788000000000125e+02 2.946995000000000005e+02 2.967517000000000280e+02 2.990636000000000081e+02 3.014649000000000001e+02 3.040720999999999776e+02 3.070144999999999982e+02 3.099886000000000195e+02 3.128254000000000019e+02 3.154168999999999983e+02 3.171166999999999803e+02 3.187671000000000276e+02 3.201888999999999896e+02 3.212866000000000213e+02 3.228158000000000243e+02 3.240029000000000110e+02 3.252164000000000215e+02 3.267302000000000248e+02 3.279775000000000205e+02 3.293007999999999811e+02 3.306831000000000245e+02 3.322166000000000281e+02 3.334282999999999788e+02 3.345323000000000206e+02 3.352017000000000166e+02 3.363365000000000009e+02 3.369223000000000070e+02 3.377782000000000266e+02 3.389891000000000076e+02 3.403523999999999887e+02 3.416680999999999813e+02 3.431154999999999973e+02 3.438926000000000158e+02 3.443673000000000002e+02 3.452294999999999732e+02 3.459193000000000211e+02 3.466270999999999844e+02 3.476322000000000116e+02 3.482894999999999754e+02 3.489728999999999814e+02 3.495611000000000104e+02 3.499157000000000153e+02 3.499648000000000252e+02 3.500013000000000147e+02 3.493534999999999968e+02 3.490310999999999808e+02 3.489551000000000158e+02 3.490817999999999870e+02 3.488099000000000274e+02 3.488448000000000206e+02 3.488256999999999834e+02 -9.999000000000000000e+03 -9.999000000000000000e+03 -9.999000000000000000e+03 -9.999000000000000000e+03 -9.999000000000000000e+03 -9.999000000000000000e+03 -9.999000000000000000e+03 -9.999000000000000000e+03 -9.999000000000000000e+03 -9.999000000000000000e+03 -9.999000000000000000e+03 -9.999000000000000000e+03 -9.999000000000000000e+03 -9.999000000000000000e+03 -9.999000000000000000e+03 -9.999000000000000000e+03 -9.999000000000000000e+03 -9.999000000000000000e+03 -9.999000000000000000e+03 -9.999000000000000000e+03 -9.999000000000000000e+03
2.895810000000000173e+02 2.898754999999999882e+02 2.906924999999999955e+02 2.909069000000000074e+02 2.909012000000000171e+02 2.910249000000000024e+02 2.911591000000000236e+02 2.918586000000000240e+02 2.918423000000000229e+02 2.914159000000000219e+02 2.916979000000000042e+02 2.919232000000000085e+02 2.921999999999999886e+02 2.929556999999999789e+02 2.925350999999999999e+02 2.925357000000000198e+02 2.930788000000000011e+02 2.924954000000000178e+02 2.922273999999999887e+02 2.914343000000000075e+02 2.910996999999999844e+02 2.914053000000000111e+02 2.922223999999999933e+02 2.927828000000000088e+02 2.916596999999999866e+02 2.898693000000000097e+02 2.893487999999999829e+02 2.902943000000000211e+02 2.877690999999999804e+02 2.869868000000000166e+02 2.863310000000000173e+02 2.859323999999999728e+02 2.854830000000000041e+02 2.853895999999999731e+02 2.851895000000000095e+02 2.849370000000000118e+02 2.847638999999999783e+02 2.846945000000000050e+02 2.845219000000000165e+02 2.841025999999999954e+02 2.846535999999999831e+02 2.862010999999999967e+02 2.881569999999999823e+02 2.899882999999999811e+02 2.924524000000000115e+02 2.952278999999999769e+02 2.967178000000000111e+02 2.992610999999999990e+02 3.016154999999999973e+02 3.042054999999999723e+02 3.069214999999999804e+02 3.097388000000000261e+02 3.127957000000000107e+02 3.153890000000000100e+02 3.169028000000000134e+02 3.182065999999999804e+02 3.196111000000000217e+02 3.210407000000000153e+02 3.222762999999999920e+02 3.237511999999999830e+02 3.249814000000000078e+02 3.261773999999999774e+02 3.275530999999999722e+02 3.291614999999999895e+02 3.305525999999999840e+02 3.322687000000000239e+02 3.335960999999999785e+02 3.346100000000000136e+02 3.350869999999999891e+02 3.359277999999999906e+02 3.366252999999999815e+02 3.379388000000000147e+02 3.390881999999999721e+02 3.404180999999999813e+02 3.421345999999999776e+02 3.433441000000000258e+02 3.443029000000000224e+02 3.446977999999999724e+02 3.452860999999999763e+02 3.458152000000000044e+02 3.464945000000000164e+02 3.472798999999999978e+02 3.480280999999999949e+02 3.486225999999999772e+02 3.494191999999999894e+02 3.496322999999999865e+02 3.496696000000000026e+02 3.496216000000000008e+02 3.491820999999999913e+02 3.488845000000000027e+02 3.486347999999999843e+02 3.486351000000000226e+02 3.486990000000000123e+02 3.485214000000000283e+02 3.487343999999999937e+02 3.485955000000000155e+02 -9.999000000000000000e+03 -9.999000000000000000e+03 -9.999000000000000000e+03 -9.999000000000000000e+03 -9.999000000000000000e+03 -9.999000000000000000e+03 -9.999000000000000000e+03 -9.999000000000000000e+03 -9.999000000000000000e+03 -9.999000000000000000e+03 -9.999000000000000000e+03 -9.999000000000000000e+03 -9.999000000000000000e+03 -9.999000000000000000e+03 -9.999000000000000000e+03 -9.999000000000000000e+03 -9.999000000000000000e+03 -9.999000000000000000e+03 -9.999000000000000000e+03 -9.999000000000000000e+03
2.901102000000000203e+02 2.903822999999999865e+02 2.911075999999999908e+02 2.914057999999999993e+02 2.913860999999999990e+02 2.915496999999999730e+02 2.918623999999999796e+02 2.921723999999999819e+02 2.923424999999999727e+02 2.920713999999999828e+02 2.940445000000000277e+02 2.930115999999999872e+02 2.925305999999999926e+02 2.934445000000000050e+02 2.930124000000000137e+02 2.926775000000000091e+02 2.927117999999999824e+02 2.937262999999999806e+02 2.936936000000000035e+02 2.918752999999999815e+02 2.913351999999999862e+02 2.916392999999999915e+02 2.931279999999999859e+02 2.943256000000000085e+02 2.938009000000000128e+02 2.908312000000000239e+02 2.915341000000000236e+02 2.909922000000000253e+02 2.878537999999999784e+02 2.871583999999999719e+02 2.866734000000000151e+02 2.862762999999999920e+02 2.858980000000000246e+02 2.853811000000000035e+02 2.853811000000000035e+02 2.852008999999999901e+02 2.848623999999999796e+02 2.849066000000000258e+02 2.848290000000000077e+02 2.844617000000000075e+02 2.849714000000000169e+02 2.859624000000000024e+02 2.881952999999999747e+02 2.903971000000000231e+02 2.923953999999999951e+02 2.963962999999999965e+02 2.973695999999999913e+02 2.996154000000000224e+02 3.017794999999999845e+02 3.045772000000000048e+02 3.070348000000000184e+02 3.096983999999999924e+02 3.122028000000000247e+02 3.147880000000000109e+02 3.168908999999999878e+02 3.185846999999999980e+02 3.200267000000000053e+02 3.214599000000000046e+02 3.226616999999999962e+02 3.239578999999999951e+02 3.253428999999999860e+02 3.265244000000000142e+02 3.278047000000000253e+02 3.295235000000000127e+02 3.309546000000000276e+02 3.323874000000000137e+02 3.337724999999999795e+02 3.347196000000000140e+02 3.351784999999999854e+02 3.358546000000000049e+02 3.366994000000000256e+02 3.378229999999999791e+02 3.389042000000000030e+02 3.404080999999999904e+02 3.422925000000000182e+02 3.435020999999999844e+02 3.442058999999999855e+02 3.448122000000000185e+02 3.452993999999999915e+02 3.457624999999999886e+02 3.462964000000000055e+02 3.471297000000000139e+02 3.474658999999999764e+02 3.483340000000000032e+02 3.492629999999999768e+02 3.494660000000000082e+02 3.495029999999999859e+02 3.495291000000000281e+02 3.491965999999999894e+02 3.486118999999999915e+02 3.484069000000000074e+02 3.483039999999999736e+02 3.485532000000000039e+02 3.484780999999999835e+02 3.485049000000000206e+02 3.484130999999999858e+02 -9.999000000000000000e+03 -9.999000000000000000e+03 -9.999000000000000000e+03 -9.999000000000000000e+03 -9.999000000000000000e+03 -9.999000000000000000e+03 -9.999000000000000000e+03 -9.999000000000000000e+03 -9.999000000000000000e+03 -9.999000000000000000e+03 -9.999000000000000000e+03 -9.999000000000000000e+03 -9.999000000000000000e+03 -9.999000000000000000e+03 -9.999000000000000000e+03 -9.999000000000000000e+03 -9.999000000000000000e+03 -9.999000000000000000e+03 -9.999000000000000000e+03 -9.999000000000000000e+03
2.905919000000000096e+02 2.908056000000000267e+02 2.914347999999999956e+02 2.917418000000000120e+02 2.919483000000000175e+02 2.920717000000000212e+02 2.923759000000000015e+02 2.925124999999999886e+02 2.928267999999999915e+02 2.941859999999999786e+02 2.944784000000000219e+02 2.930785999999999945e+02 2.934100000000000250e+02 2.940566000000000031e+02 2.932486000000000104e+02 2.929019999999999868e+02 2.938990000000000009e+02 2.940321999999999889e+02 2.934791000000000167e+02 2.927733000000000061e+02 2.917305000000000064e+02 2.919028000000000134e+02 2.935989999999999895e+02 2.955040000000000191e+02 2.952955999999999790e+02 2.942792000000000030e+02 2.938238000000000056e+02 2.911662999999999784e+02 2.883489999999999895e+02 2.876537999999999897e+02 2.874982999999999720e+02 2.871490000000000009e+02 2.867450000000000045e+02 2.861619999999999777e+02 2.858643000000000143e+02 2.857848000000000184e+02 2.852407000000000039e+02 2.851209999999999809e+02 2.852259999999999991e+02 2.850688000000000102e+02 2.852010999999999967e+02 2.857332000000000107e+02 2.875165000000000077e+02 2.901829000000000178e+02 2.923908000000000129e+02 2.963654000000000224e+02 2.973115000000000236e+02 2.995828000000000202e+02 3.019705999999999904e+02 3.048050999999999817e+02 3.072574000000000183e+02 3.096077999999999975e+02 3.119422999999999888e+02 3.143367999999999824e+02 3.164372999999999934e+02 3.188236999999999739e+02 3.207364999999999782e+02 3.221367000000000189e+02 3.234250999999999863e+02 3.248414999999999964e+02 3.259882000000000062e+02 3.273790000000000191e+02 3.289202999999999975e+02 3.303639999999999759e+02 3.315887000000000171e+02 3.329039000000000215e+02 3.341596000000000117e+02 3.349694999999999823e+02 3.356403000000000247e+02 3.362411000000000172e+02 3.369397999999999911e+02 3.380957999999999970e+02 3.393505000000000109e+02 3.407497999999999934e+02 3.423303000000000225e+02 3.433249999999999886e+02 3.441188000000000216e+02 3.447692999999999870e+02 3.452687000000000239e+02 3.454533000000000129e+02 3.460251000000000090e+02 3.464520999999999731e+02 3.470514999999999759e+02 3.481886999999999830e+02 3.488498000000000161e+02 3.489049999999999727e+02 3.492640999999999849e+02 3.496302000000000021e+02 3.490475000000000136e+02 3.486512000000000171e+02 3.482925000000000182e+02 3.483039999999999736e+02 3.483482000000000198e+02 3.482339000000000055e+02 3.483725000000000023e+02 3.486569000000000074e+02 -9.999000000000000000e+03 -9.999000000000000000e+03 -9.999000000000000000e+03 -9.999000000000000000e+03 -9.999000000000000000e+03 -9.999000000000000000e+03 -9.999000000000000000e+03 -9.999000000000000000e+03 -9.999000000000000000e+03 -9.999000000000000000e+03 -9.999000000000000000e+03 -9.999000000000000000e+03 -9.999000000000000000e+03 -9.999000000000000000e+03 -9.999000000000000000e+03 -9.999000000000000000e+03 -9.999000000000000000e+03 -9.999000000000000000e+03 -9.999000000000000000e+03 -9.999000000000000000e+03
-9.999000000000000000e+03 2.913374999999999773e+02 2.917884000000000242e+02 2.920496999999999730e+02 2.922909000000000219e+02 2.925778000000000247e+02 2.927090000000000032e+02 2.930056000000000154e+02 2.932373000000000047e+02 2.951956999999999880e+02 2.939866000000000099e+02 2.938636000000000195e+02 2.943833999999999946e+02 2.952011999999999716e+02 2.936727000000000203e+02 2.929499000000000137e+02 2.943414000000000215e+02 2.944495999999999754e+02 2.940513000000000261e+02 2.931413000000000011e+02 2.922579000000000065e+02 2.923625999999999863e+02 2.945862000000000194e+02 2.963700999999999794e+02 2.952223000000000184e+02 2.950819999999999936e+02 2.958004000000000246e+02 2.914424000000000206e+02 2.888527000000000271e+02 2.883358000000000061e+02 2.883548000000000116e+02 2.883435999999999808e+02 2.880604000000000156e+02 2.873505999999999858e+02 2.865282000000000266e+02 2.866558999999999742e+02 2.861485000000000127e+02 2.853960999999999899e+02 2.854340000000000259e+02 2.854664000000000215e+02 2.854719000000000051e+02 2.859288999999999987e+02 2.871664999999999850e+02 2.893940999999999804e+02 2.924542999999999893e+02 2.969291000000000054e+02 2.973883000000000152e+02 2.996528000000000134e+02 3.022767000000000053e+02 3.049504000000000019e+02 3.074852000000000203e+02 3.098734000000000037e+02 3.121009999999999991e+02 3.142490999999999985e+02 3.163638000000000261e+02 3.187198999999999955e+02 3.208655999999999722e+02 3.223899999999999864e+02 3.235711000000000013e+02 3.247699999999999818e+02 3.260985000000000014e+02 3.276347999999999843e+02 3.294341000000000008e+02 3.309581999999999766e+02 3.322748000000000275e+02 3.334664000000000215e+02 3.345425999999999931e+02 3.352411999999999921e+02 3.359544000000000210e+02 3.366091999999999871e+02 3.373358000000000061e+02 3.384309000000000083e+02 3.395971000000000117e+02 3.409243000000000166e+02 3.421567999999999756e+02 3.430620000000000118e+02 3.440668999999999755e+02 3.446671999999999798e+02 3.451648000000000138e+02 3.453643000000000143e+02 3.456761999999999944e+02 3.458301000000000158e+02 3.467081000000000017e+02 3.475781000000000063e+02 3.480088999999999828e+02 3.482819999999999823e+02 3.488238999999999805e+02 3.494626000000000090e+02 3.488593000000000188e+02 3.482966999999999871e+02 3.478804000000000087e+02 3.479042999999999779e+02 3.480156999999999812e+02 3.478557999999999879e+02 3.481972000000000094e+02 3.488374999999999773e+02 3.491693999999999960e+02 -9.999000000000000000e+03 -9.999000000000000000e+03 -9.999000000000000000e+03 -9.999000000000000000e+03 -9.999000000000000000e+03 -9.999000000000000000e+03 -9.999000000000000000e+03 -9.999000000000000000e+03 -9.999000000000000000e+03 -9.999000000000000000e+03 -9.999000000000000000e+03 -9.999000000000000000e+03 -9.999000000000000000e+03 -9.999000000000000000e+03 -9.999000000000000000e+03 -9.999000000000000000e+03 -9.999000000000000000e+03 -9.999000000000000000e+03 -9.999000000000000000e+03
-9.999000000000000000e+03 -9.999000000000000000e+03 2.922395000000000209e+02 2.925384999999999991e+02 2.926290000000000191e+02 2.928546000000000049e+02 2.929855000000000018e+02 2.935067000000000235e+02 2.938924999999999841e+02 2.956487999999999943e+02 2.942717999999999847e+02 2.946340000000000146e+02 2.951501000000000090e+02 2.956326999999999998e+02 2.941571999999999889e+02 2.934057000000000244e+02 2.943924999999999841e+02 2.948928000000000225e+02 2.949032000000000266e+02 2.937273000000000138e+02 2.929857999999999834e+02 2.933915999999999826e+02 2.952850000000000250e+02 2.957232999999999947e+02 2.949166999999999916e+02 2.949166999999999916e+02 2.949166999999999916e+02 2.920749000000000137e+02 2.896587000000000103e+02 2.891616000000000213e+02 2.890085000000000264e+02 2.889261000000000195e+02 2.888455999999999904e+02 2.883840000000000146e+02 2.874651000000000067e+02 2.871734000000000151e+02 2.868500000000000227e+02 2.861807000000000016e+02 2.858661000000000172e+02 2.859689000000000192e+02 2.859028000000000134e+02 2.859936999999999898e+02 2.866138000000000261e+02 2.887737000000000194e+02 2.922758000000000038e+02 2.965706999999999880e+02 2.979302000000000135e+02 3.000355000000000132e+02 3.025239000000000260e+02 3.049907000000000039e+02 3.072151000000000067e+02 3.100572999999999979e+02 3.122558999999999969e+02 3.144544999999999959e+02 3.164504999999999768e+02 3.185862000000000194e+02 3.206514000000000237e+02 3.224212999999999738e+02 3.239526000000000181e+02 3.251802000000000135e+02 3.262837000000000103e+02 3.279585999999999899e+02 3.295539999999999736e+02 3.312765999999999735e+02 3.325640999999999963e+02 3.338263999999999783e+02 3.347574999999999932e+02 3.355584999999999809e+02 3.365421000000000049e+02 3.373226999999999975e+02 3.377617000000000189e+02 3.385409000000000219e+02 3.397056999999999789e+02 3.407196000000000140e+02 3.417844000000000051e+02 3.428690000000000282e+02 3.438516999999999939e+02 3.445212999999999965e+02 3.449205000000000041e+02 3.450541999999999803e+02 3.453682000000000016e+02 3.458068000000000097e+02 3.462993000000000166e+02 3.468374999999999773e+02 3.471181000000000267e+02 3.476510000000000105e+02 3.483122999999999934e+02 3.486333000000000197e+02 3.479087999999999852e+02 3.478412000000000148e+02 3.475873000000000275e+02 3.474968999999999824e+02 3.477740000000000009e+02 3.478138000000000147e+02 3.482169999999999845e+02 3.490926999999999794e+02 3.493716999999999757e+02 -9.999000000000000000e+03 -9.999000000000000000e+03 -9.999000000000000000e+03 -9.999000000000000000e+03 -9.999000000000000000e+03 -9.999000000000000000e+03 -9.999000000000000000e+03 -9.999000000000000000e+03 -9.999000000000000000e+03 -9.999000000000000000e+03 -9.999000000000000000e+03 -9.999000000000000000e+03 -9.999000000000000000e+03 -9.999000000000000000e+03 -9.999000000000000000e+03 -9.999000000000000000e+03 -9.999000000000000000e+03 -9.999000000000000000e+03 -9.999000000000000000e+03
-9.999000000000000000e+03 -9.999000000000000000e+03 -9.999000000000000000e+03 2.929880999999999744e+02 2.931994000000000256e+02 2.934277000000000157e+02 2.935163000000000011e+02 2.937841999999999985e+02 2.952624000000000137e+02 2.950450999999999908e+02 2.947026999999999930e+02 2.953097999999999956e+02 2.956333999999999946e+02 2.961687000000000012e+02 2.954207000000000107e+02 2.945312999999999874e+02 2.947706000000000017e+02 2.959311999999999898e+02 2.960176000000000158e+02 2.944608000000000061e+02 2.941175000000000068e+02 2.949936999999999898e+02 2.951702999999999975e+02 2.949166999999999916e+02 2.949166999999999916e+02 2.951317000000000235e+02 2.940993000000000279e+02 2.922585000000000264e+02 2.903457000000000221e+02 2.900242999999999824e+02 2.894261999999999944e+02 2.890724000000000160e+02 2.892699000000000069e+02 2.889793000000000234e+02 2.880396000000000072e+02 2.876086999999999989e+02 2.875142999999999915e+02 2.870095000000000027e+02 2.863836000000000013e+02 2.864329999999999927e+02 2.863435999999999808e+02 2.864538000000000011e+02 2.866730999999999767e+02 2.880436000000000263e+02 2.919628999999999905e+02 2.970321999999999889e+02 2.982368000000000166e+02 3.005695999999999799e+02 3.024850999999999885e+02 3.051859000000000037e+02 3.070176999999999907e+02 3.098394999999999868e+02 3.121591000000000236e+02 3.142509000000000015e+02 3.163455999999999904e+02 3.183985999999999876e+02 3.205020000000000095e+02 3.220296999999999912e+02 3.235898000000000252e+02 3.252851999999999748e+02 3.266333999999999946e+02 3.280760000000000218e+02 3.295557000000000016e+02 3.310871999999999957e+02 3.324311000000000149e+02 3.339465000000000146e+02 3.351275999999999726e+02 3.359716999999999985e+02 3.368113999999999919e+02 3.373582000000000107e+02 3.379630000000000223e+02 3.386614999999999895e+02 3.394832000000000107e+02 3.403369000000000142e+02 3.412504000000000133e+02 3.423661999999999921e+02 3.433711000000000126e+02 3.442667000000000144e+02 3.447391000000000076e+02 3.447687000000000239e+02 3.450604000000000156e+02 3.455486000000000217e+02 3.460421000000000049e+02 3.462900999999999954e+02 3.466222999999999956e+02 3.469572000000000003e+02 3.475034999999999741e+02 3.475391000000000190e+02 3.472008000000000152e+02 3.471322000000000116e+02 3.469793999999999983e+02 3.471589000000000169e+02 3.474143000000000256e+02 3.477443000000000097e+02 3.482497000000000185e+02 3.492921999999999798e+02 3.499447999999999865e+02 -9.999000000000000000e+03 -9.999000000000000000e+03 -9.999000000000000000e+03 -9.999000000000000000e+03 -9.999000000000000000e+03 -9.999000000000000000e+03 -9.999000000000000000e+03 -9.999000000000000000e+03 -9.999000000000000000e+03 -9.999000000000000000e+03 -9.999000000000000000e+03 -9.999000000000000000e+03 -9.999000000000000000e+03 -9.999000000000000000e+03 -9.999000000000000000e+03 -9.999000000000000000e+03 -9.999000000000000000e+03 -9.999000000000000000e+03 -9.999000000000000000e+03
-9.999000000000000000e+03 -9.999000000000000000e+03 -9.999000000000000000e+03 -9.999000000000000000e+03 2.938727999999999838e+02 2.939959999999999809e+02 2.940942000000000007e+02 2.941653000000000020e+02 2.969058999999999742e+02 2.950745999999999754e+02 2.951379999999999768e+02 2.954562000000000239e+02 2.960027000000000044e+02 2.967907999999999902e+02 2.965513000000000261e+02 2.973899000000000115e+02 2.976105999999999767e+02 2.970916000000000281e+02 2.975149000000000115e+02 2.966720000000000255e+02 2.958249000000000137e+02 2.955702999999999747e+02 2.951702999999999975e+02 2.952973000000000070e+02 2.952234000000000265e+02 2.957486999999999853e+02 2.937486000000000104e+02 2.922538999999999874e+02 2.910205000000000268e+02 2.909250000000000114e+02 2.902105999999999995e+02 2.894644999999999868e+02 2.891275999999999726e+02 2.887896000000000072e+02 2.884035999999999831e+02 2.883729999999999905e+02 2.875142999999999915e+02 2.875602999999999838e+02 2.870609000000000037e+02 2.868663999999999987e+02 2.868740999999999985e+02 2.869370999999999867e+02 2.869676000000000045e+02 2.882260999999999740e+02 2.916875999999999749e+02 2.969067999999999756e+02 2.985663999999999874e+02 3.003792000000000257e+02 3.031177999999999884e+02 3.049032000000000266e+02 3.069755999999999858e+02 3.093734000000000037e+02 3.119173999999999864e+02 3.139628999999999905e+02 3.161240000000000236e+02 3.183407000000000266e+02 3.202210000000000036e+02 3.220167999999999893e+02 3.235233999999999810e+02 3.253525000000000205e+02 3.269436000000000035e+02 3.284196000000000026e+02 3.300813999999999737e+02 3.312606999999999857e+02 3.328503000000000043e+02 3.344148000000000138e+02 3.356512999999999920e+02 3.364100000000000250e+02 3.370153000000000247e+02 3.374356000000000222e+02 3.380527999999999906e+02 3.386272999999999911e+02 3.392636999999999716e+02 3.399325000000000045e+02 3.407984999999999900e+02 3.417730000000000246e+02 3.428444000000000074e+02 3.437208999999999719e+02 3.442121000000000208e+02 3.442574000000000183e+02 3.448885000000000218e+02 3.452081000000000017e+02 3.455926000000000045e+02 3.459275000000000091e+02 3.461514000000000237e+02 3.463709000000000060e+02 3.465756999999999834e+02 3.463944000000000187e+02 3.461585000000000036e+02 3.464465999999999894e+02 3.464443999999999733e+02 3.463809999999999718e+02 3.470434999999999945e+02 3.472597999999999843e+02 3.482087000000000216e+02 3.494388999999999896e+02 3.501449000000000069e+02 -9.999000000000000000e+03 -9.999000000000000000e+03 -9.999000000000000000e+03 -9.999000000000000000e+03 -9.999000000000000000e+03 -9.999000000000000000e+03 -9.999000000000000000e+03 -9.999000000000000000e+03 -9.999000000000000000e+03 -9.999000000000000000e+03 -9.999000000000000000e+03 -9.999000000000000000e+03 -9.999000000000000000e+03 -9.999000000000000000e+03 -9.999000000000000000e+03 -9.999000000000000000e+03 -9.999000000000000000e+03 -9.999000000000000000e+03 -9.999000000000000000e+03
-9.999000000000000000e+03 -9.999000000000000000e+03 -9.999000000000000000e+03 -9.999000000000000000e+03 -9.999000000000000000e+03 2.947932000000000130e+02 2.949965000000000259e+02 2.948872999999999820e+02 2.965255000000000223e+02 2.956367000000000189e+02 2.957756999999999721e+02 2.959578999999999951e+02 2.966247999999999934e+02 2.970291000000000281e+02 2.973926000000000158e+02 2.983643000000000143e+02 2.976105999999999767e+02 2.995559999999999832e+02 3.011917000000000257e+02 2.989873000000000047e+02 2.968736999999999853e+02 2.958946000000000254e+02 2.959889999999999759e+02 2.959125000000000227e+02 2.952234000000000265e+02 2.952259999999999991e+02 2.939886000000000195e+02 2.925135000000000218e+02 2.915708999999999946e+02 2.917644000000000233e+02 2.910113999999999805e+02 2.899990999999999985e+02 2.894542999999999893e+02 2.890932999999999993e+02 2.891600000000000250e+02 2.892837000000000103e+02 2.881422000000000025e+02 2.880579999999999927e+02 2.875119000000000256e+02 2.872078000000000202e+02 2.871834000000000060e+02 2.871528000000000134e+02 2.872400000000000091e+02 2.882366000000000099e+02 2.907799999999999727e+02 2.957577999999999747e+02 2.986660999999999717e+02 3.006164999999999736e+02 3.026320000000000050e+02 3.047769000000000119e+02 3.069936000000000149e+02 3.091057999999999879e+02 3.117708000000000084e+02 3.137343000000000188e+02 3.160436000000000263e+02 3.182559999999999718e+02 3.204642000000000053e+02 3.219519999999999982e+02 3.236544000000000096e+02 3.254196999999999775e+02 3.271202999999999861e+02 3.289850999999999885e+02 3.303253000000000270e+02 3.318167000000000257e+02 3.333815999999999917e+02 3.348381999999999721e+02 3.357072000000000003e+02 3.365197000000000003e+02 3.370642000000000280e+02 3.375341999999999985e+02 3.379322999999999979e+02 3.383455999999999904e+02 3.388369999999999891e+02 3.395321999999999889e+02 3.403068000000000097e+02 3.409990000000000236e+02 3.420496999999999730e+02 3.429574999999999818e+02 3.435004999999999882e+02 3.439746999999999844e+02 3.443847000000000094e+02 3.447751999999999839e+02 3.449556999999999789e+02 3.452538999999999874e+02 3.455475999999999885e+02 3.457491999999999734e+02 3.458005999999999744e+02 3.457280000000000086e+02 3.456832999999999743e+02 3.457418000000000120e+02 3.459769000000000005e+02 3.462925999999999931e+02 3.467486999999999853e+02 3.471197999999999979e+02 3.484325000000000045e+02 3.496164999999999736e+02 3.503290999999999826e+02 -9.999000000000000000e+03 -9.999000000000000000e+03 -9.999000000000000000e+03 -9.999000000000000000e+03 -9.999000000000000000e+03 -9.999000000000000000e+03 -9.999000000000000000e+03 -9.999000000000000000e+03 -9.999000000000000000e+03 -9.999000000000000000e+03 -9.999000000000000000e+03 -9.999000000000000000e+03 -9.999000000000000000e+03 -9.999000000000000000e+03 -9.999000000000000000e+03 -9.999000000000000000e+03 -9.999000000000000000e+03 -9.999000000000000000e+03 -9.999000000000000000e+03
-9.999000000000000000e+03 -9.999000000000000000e+03 -9.999000000000000000e+03 -9.999000000000000000e+03 -9.999000000000000000e+03 2.953700000000000045e+02 2.956107000000000085e+02 2.957878000000000043e+02 2.967737999999999943e+02 2.963552999999999997e+02 2.965908999999999764e+02 2.967644000000000233e+02 2.969984000000000037e+02 2.973417000000000030e+02 2.984640999999999735e+02 2.985862000000000194e+02 3.001170000000000186e+02 3.023290000000000077e+02 3.021179000000000201e+02 2.991121999999999730e+02 2.972629999999999768e+02 2.976994000000000256e+02 2.968736999999999853e+02 2.969963999999999942e+02 2.952475999999999772e+02 2.952955999999999790e+02 2.942986000000000217e+02 2.933158000000000243e+02 2.924585000000000150e+02 2.926025000000000205e+02 2.917866999999999962e+02 2.908376999999999839e+02 2.900935000000000059e+02 2.896657000000000153e+02 2.897178000000000111e+02 2.898491999999999962e+02 2.890534999999999854e+02 2.880980999999999881e+02 2.881157999999999788e+02 2.876168999999999869e+02 2.874513999999999783e+02 2.873385000000000105e+02 2.875597000000000207e+02 2.886623000000000161e+02 2.913288999999999760e+02 2.956424999999999841e+02 2.990378999999999792e+02 3.009778999999999769e+02 3.027764999999999986e+02 3.042522000000000162e+02 3.067692000000000121e+02 3.091052000000000248e+02 3.113652999999999906e+02 3.134175000000000182e+02 3.158036999999999921e+02 3.182194000000000074e+02 3.206424999999999841e+02 3.220348999999999933e+02 3.239295000000000186e+02 3.255244000000000142e+02 3.274612000000000194e+02 3.289737000000000080e+02 3.304907000000000039e+02 3.320554000000000201e+02 3.337307000000000130e+02 3.350335000000000036e+02 3.358437999999999874e+02 3.365713999999999828e+02 3.371460000000000150e+02 3.375165999999999826e+02 3.378512000000000057e+02 3.381179000000000201e+02 3.384436999999999784e+02 3.389816999999999894e+02 3.395615000000000236e+02 3.403978000000000179e+02 3.413700999999999794e+02 3.421974000000000160e+02 3.428589000000000055e+02 3.433238000000000056e+02 3.438711000000000126e+02 3.440529999999999973e+02 3.442167000000000030e+02 3.446345000000000027e+02 3.449839000000000055e+02 3.450405000000000086e+02 3.451220999999999890e+02 3.451777000000000157e+02 3.450518000000000143e+02 3.448340000000000032e+02 3.454028000000000134e+02 3.459263000000000261e+02 3.465690000000000168e+02 3.470194999999999936e+02 3.486533999999999764e+02 3.497053000000000225e+02 3.502176000000000045e+02 3.506981000000000108e+02 -9.999000000000000000e+03 -9.999000000000000000e+03 -9.999000000000000000e+03 -9.999000000000000000e+03 -9.999000000000000000e+03 -9.999000000000000000e+03 -9.999000000000000000e+03 -9.999000000000000000e+03 -9.999000000000000000e+03 -9.999000000000000000e+03 -9.999000000000000000e+03 -9.999000000000000000e+03 -9.999000000000000000e+03 -9.999000000000000000e+03 -9.999000000000000000e+03 -9.999000000000000000e+03 -9.999000000000000000e+03 -9.999000000000000000e+03
-9.999000000000000000e+03 -9.999000000000000000e+03 -9.999000000000000000e+03 -9.999000000000000000e+03 -9.999000000000000000e+03 2.962685999999999922e+02 2.962731999999999744e+02 2.966216999999999757e+02 2.970683000000000220e+02 2.966857999999999720e+02 2.970210999999999899e+02 2.975181000000000040e+02 2.975151999999999930e+02 2.981829000000000178e+02 2.995446999999999775e+02 3.008315000000000055e+02 3.007033000000000129e+02 3.005643000000000029e+02 3.001345000000000027e+02 2.984386999999999830e+02 2.977076999999999884e+02 2.980504000000000246e+02 2.979331000000000245e+02 2.975153999999999996e+02 2.964628000000000156e+02 2.967921999999999798e+02 2.961066000000000145e+02 2.941963000000000079e+02 2.933575000000000159e+02 2.933711999999999875e+02 2.926492000000000075e+02 2.917226999999999748e+02 2.916682000000000130e+02 2.907635000000000218e+02 2.906383999999999901e+02 2.907334999999999923e+02 2.900185999999999922e+02 2.889914999999999736e+02 2.882748000000000275e+02 2.881275999999999726e+02 2.877475000000000023e+02 2.874694999999999823e+02 2.876951999999999998e+02 2.890747000000000071e+02 2.927257000000000176e+02 2.956082999999999856e+02 2.989562000000000239e+02 3.005355000000000132e+02 3.032572999999999865e+02 3.044207999999999856e+02 3.067020999999999731e+02 3.085443000000000211e+02 3.110197000000000003e+02 3.132554000000000087e+02 3.154644999999999868e+02 3.177663000000000011e+02 3.199925000000000068e+02 3.223679999999999950e+02 3.239051999999999794e+02 3.256256000000000199e+02 3.274239999999999782e+02 3.285043000000000006e+02 3.298433999999999742e+02 3.319234999999999900e+02 3.338521000000000072e+02 3.348566000000000145e+02 3.356082000000000107e+02 3.361505000000000223e+02 3.367094000000000165e+02 3.373457000000000221e+02 3.376326000000000249e+02 3.379972999999999956e+02 3.381983999999999924e+02 3.384467000000000212e+02 3.388530000000000086e+02 3.395486000000000217e+02 3.404547000000000025e+02 3.413503000000000043e+02 3.418154000000000110e+02 3.426700999999999908e+02 3.431345999999999776e+02 3.433133000000000266e+02 3.435199999999999818e+02 3.440287999999999897e+02 3.442364999999999782e+02 3.445847999999999729e+02 3.446471000000000231e+02 3.448100999999999772e+02 3.449107000000000198e+02 3.443507000000000176e+02 3.449028999999999883e+02 3.454759000000000242e+02 3.459897000000000276e+02 3.469191000000000145e+02 3.486825000000000045e+02 3.493951999999999884e+02 3.499178999999999746e+02 3.504193000000000211e+02 -9.999000000000000000e+03 -9.999000000000000000e+03 -9.999000000000000000e+03 -9.999000000000000000e+03 -9.999000000000000000e+03 -9.999000000000000000e+03 -9.999000000000000000e+03 -9.999000000000000000e+03 -9.999000000000000000e+03 -9.999000000000000000e+03 -9.999000000000000000e+03 -9.999000000000000000e+03 -9.999000000000000000e+03 -9.999000000000000000e+03 -9.999000000000000000e+03 -9.999000000000000000e+03 -9.999000000000000000e+03 -9.999000000000000000e+03
-9.999000000000000000e+03 -9.999000000000000000e+03 -9.999000000000000000e+03 -9.999000000000000000e+03 -9.999000000000000000e+03 -9.999000000000000000e+03 2.964320000000000164e+02 2.970269999999999868e+02 2.973303000000000225e+02 2.970436000000000263e+02 2.978222000000000094e+02 2.981370999999999754e+02 2.980102999999999724e+02 2.982192999999999756e+02 3.011942000000000235e+02 3.005441999999999894e+02 2.999152000000000271e+02 2.999152000000000271e+02 2.997115999999999758e+02 2.990201000000000136e+02 2.986875999999999749e+02 2.991075999999999908e+02 2.995489999999999782e+02 2.985760000000000218e+02 2.974712999999999852e+02 2.975337000000000103e+02 2.971109000000000151e+02 2.949941999999999780e+02 2.942583999999999946e+02 2.943041000000000054e+02 2.936252000000000066e+02 2.925948000000000206e+02 2.925803999999999974e+02 2.918863999999999805e+02 2.910074999999999932e+02 2.910258999999999787e+02 2.901467999999999847e+02 2.893978999999999928e+02 2.886634999999999991e+02 2.884051999999999794e+02 2.882984999999999900e+02 2.880366999999999962e+02 2.883043999999999869e+02 2.899243999999999915e+02 2.932210000000000036e+02 2.954708999999999719e+02 2.986811999999999898e+02 3.003116999999999734e+02 3.024171999999999798e+02 3.045835999999999899e+02 3.063050000000000068e+02 3.080826000000000136e+02 3.106326000000000249e+02 3.129021000000000186e+02 3.150416999999999916e+02 3.172839999999999918e+02 3.197126000000000090e+02 3.219069000000000074e+02 3.237287999999999784e+02 3.252103999999999928e+02 3.267762999999999920e+02 3.281503999999999905e+02 3.302855999999999881e+02 3.321091000000000122e+02 3.335122000000000071e+02 3.342457999999999743e+02 3.349911000000000172e+02 3.355987000000000080e+02 3.363027999999999906e+02 3.368650000000000091e+02 3.372894000000000005e+02 3.377894000000000005e+02 3.379682999999999993e+02 3.379533999999999878e+02 3.380914999999999964e+02 3.387671000000000276e+02 3.395819999999999936e+02 3.402900000000000205e+02 3.409003000000000156e+02 3.417466000000000008e+02 3.421388000000000034e+02 3.424909999999999854e+02 3.428539000000000101e+02 3.434388000000000147e+02 3.437914000000000101e+02 3.440566999999999780e+02 3.443104000000000156e+02 3.442995999999999981e+02 3.443740000000000236e+02 3.442937999999999761e+02 3.446958000000000197e+02 3.448913999999999760e+02 3.456299999999999955e+02 3.467271999999999821e+02 3.482930999999999813e+02 3.489857000000000085e+02 3.495212000000000216e+02 3.499499999999999886e+02 -9.999000000000000000e+03 -9.999000000000000000e+03 -9.999000000000000000e+03 -9.999000000000000000e+03 -9.999000000000000000e+03 -9.999000000000000000e+03 -9.999000000000000000e+03 -9.999000000000000000e+03 -9.999000000000000000e+03 -9.999000000000000000e+03 -9.999000000000000000e+03 -9.999000000000000000e+03 -9.999000000000000000e+03 -9.999000000000000000e+03 -9.999000000000000000e+03 -9.999000000000000000e+03 -9.999000000000000000e+03 -9.999000000000000000e+03
-9.999000000000000000e+03 -9.999000000000000000e+03 -9.999000000000000000e+03 -9.999000000000000000e+03 -9.999000000000000000e+03 2.969925000000000068e+02 2.968272000000000048e+02 2.974198000000000093e+02 2.975183999999999855e+02 2.979171999999999798e+02 2.986793999999999869e+02 2.984322999999999979e+02 2.980102999999999724e+02 3.000770999999999731e+02 3.011990999999999872e+02 2.999152000000000271e+02 2.999152000000000271e+02 2.999759999999999991e+02 2.997393000000000143e+02 2.996840000000000259e+02 2.994073999999999955e+02 2.999282000000000039e+02 3.002486000000000104e+02 3.002574000000000183e+02 2.987312999999999761e+02 2.983833000000000197e+02 2.981893999999999778e+02 2.958831000000000131e+02 2.947681000000000040e+02 2.948025000000000091e+02 2.941422999999999774e+02 2.930230999999999995e+02 2.929008000000000038e+02 2.927072999999999752e+02 2.918247999999999820e+02 2.913774999999999977e+02 2.907348000000000070e+02 2.900994999999999777e+02 2.892090999999999781e+02 2.887939999999999827e+02 2.887873999999999910e+02 2.883480000000000132e+02 2.890214000000000283e+02 2.911322999999999865e+02 2.938702999999999861e+02 2.955873000000000275e+02 2.977733999999999810e+02 2.999834999999999923e+02 3.022989000000000033e+02 3.044141999999999939e+02 3.057588999999999828e+02 3.078274999999999864e+02 3.099898000000000025e+02 3.121548999999999978e+02 3.146429999999999723e+02 3.167264000000000124e+02 3.187647000000000048e+02 3.211157000000000039e+02 3.228011999999999944e+02 3.244057999999999993e+02 3.267359999999999900e+02 3.287796000000000163e+02 3.297749000000000024e+02 3.312828999999999837e+02 3.323072999999999979e+02 3.333261999999999716e+02 3.342518999999999778e+02 3.348840000000000146e+02 3.355899000000000001e+02 3.363412999999999897e+02 3.368924999999999841e+02 3.374361999999999853e+02 3.374581000000000017e+02 3.374771000000000072e+02 3.373727000000000089e+02 3.377656000000000063e+02 3.385205000000000268e+02 3.393147999999999911e+02 3.399626000000000090e+02 3.408380000000000223e+02 3.413865000000000123e+02 3.418279999999999745e+02 3.422162999999999897e+02 3.427966999999999871e+02 3.432087000000000216e+02 3.434775999999999954e+02 3.437008000000000152e+02 3.435031000000000176e+02 3.433969000000000165e+02 3.439811000000000263e+02 3.445643000000000029e+02 3.449683999999999742e+02 3.455147000000000048e+02 3.465074000000000183e+02 3.474576999999999884e+02 3.480661000000000058e+02 3.487982000000000085e+02 -9.999000000000000000e+03 -9.999000000000000000e+03 -9.999000000000000000e+03 -9.999000000000000000e+03 -9.999000000000000000e+03 -9.999000000000000000e+03 -9.999000000000000000e+03 -9.999000000000000000e+03 -9.999000000000000000e+03 -9.999000000000000000e+03 -9.999000000000000000e+03 -9.999000000000000000e+03 -9.999000000000000000e+03 -9.999000000000000000e+03 -9.999000000000000000e+03 -9.999000000000000000e+03 -9.999000000000000000e+03 -9.999000000000000000e+03 -9.999000000000000000e+03
-9.999000000000000000e+03 -9.999000000000000000e+03 -9.999000000000000000e+03 -9.999000000000000000e+03 -9.999000000000000000e+03 2.976662999999999784e+02 2.975373000000000161e+02 2.982395000000000209e+02 2.979759000000000242e+02 2.980933999999999742e+02 2.983288999999999760e+02 2.986009999999999991e+02 2.991883000000000266e+02 3.013663000000000238e+02 3.009823000000000093e+02 3.009823000000000093e+02 3.010376999999999725e+02 3.005575000000000045e+02 3.008697999999999979e+02 3.007316999999999894e+02 2.996956000000000131e+02 3.007561000000000035e+02 3.010450000000000159e+02 3.005876000000000090e+02 2.995414000000000101e+02 2.989458999999999946e+02 2.990858000000000061e+02 2.972592000000000212e+02 2.958691999999999780e+02 2.954211000000000240e+02 2.944692000000000007e+02 2.935239000000000260e+02 2.933654999999999973e+02 2.928783999999999992e+02 2.926861999999999853e+02 2.920804999999999723e+02 2.913693999999999846e+02 2.904735000000000014e+02 2.898580000000000041e+02 2.894977000000000089e+02 2.894429999999999836e+02 2.891696000000000026e+02 2.897545000000000073e+02 2.911977999999999724e+02 2.934680000000000177e+02 2.949520999999999731e+02 2.972776000000000067e+02 2.996875000000000000e+02 3.015826000000000136e+02 3.039984000000000037e+02 3.052244999999999777e+02 3.073466999999999985e+02 3.094023000000000252e+02 3.115323000000000206e+02 3.138090000000000259e+02 3.158423000000000229e+02 3.178793999999999755e+02 3.199195000000000277e+02 3.216811999999999898e+02 3.234871999999999730e+02 3.256304000000000087e+02 3.273716000000000008e+02 3.285167999999999893e+02 3.300908999999999764e+02 3.309843000000000188e+02 3.323321000000000254e+02 3.334827000000000226e+02 3.341596999999999866e+02 3.351299999999999955e+02 3.355917000000000030e+02 3.361949999999999932e+02 3.368027000000000157e+02 3.369447999999999865e+02 3.368116999999999734e+02 3.365788000000000011e+02 3.366652000000000271e+02 3.374309000000000083e+02 3.383152000000000044e+02 3.393503999999999792e+02 3.401569000000000074e+02 3.406424999999999841e+02 3.411487999999999943e+02 3.415181999999999789e+02 3.420368000000000279e+02 3.425962000000000103e+02 3.429785999999999717e+02 3.430830000000000268e+02 3.429026999999999816e+02 3.426578000000000088e+02 3.435720000000000027e+02 3.445165000000000077e+02 3.450706000000000131e+02 3.456075000000000159e+02 3.464784999999999968e+02 3.471173999999999751e+02 3.476612999999999829e+02 3.483143999999999778e+02 -9.999000000000000000e+03 -9.999000000000000000e+03 -9.999000000000000000e+03 -9.999000000000000000e+03 -9.999000000000000000e+03 -9.999000000000000000e+03 -9.999000000000000000e+03 -9.999000000000000000e+03 -9.999000000000000000e+03 -9.999000000000000000e+03 -9.999000000000000000e+03 -9.999000000000000000e+03 -9.999000000000000000e+03 -9.999000000000000000e+03 -9.999000000000000000e+03 -9.999000000000000000e+03 -9.999000000000000000e+03 -9.999000000000000000e+03 -9.999000000000000000e+03
-9.999000000000000000e+03 -9.999000000000000000e+03 -9.999000000000000000e+03 -9.999000000000000000e+03 -9.999000000000000000e+03 2.982266000000000190e+02 2.980826000000000136e+02 2.992470000000000141e+02 2.987278000000000020e+02 2.983575000000000159e+02 2.986311000000000035e+02 2.992563999999999851e+02 2.998063000000000216e+02 3.015323999999999955e+02 3.013537000000000035e+02 3.026383000000000152e+02 3.017069000000000187e+02 3.018442999999999756e+02 3.018609000000000151e+02 3.003439999999999941e+02 2.996956000000000131e+02 3.004531999999999812e+02 3.012619000000000256e+02 3.009708999999999719e+02 3.004631999999999721e+02 3.002008999999999901e+02 2.998761000000000081e+02 2.983376000000000090e+02 2.970224999999999795e+02 2.960063000000000102e+02 2.950269999999999868e+02 2.940731000000000108e+02 2.938444999999999823e+02 2.933192000000000235e+02 2.931492000000000075e+02 2.925932999999999993e+02 2.916836999999999875e+02 2.909997000000000185e+02 2.904623000000000275e+02 2.902540000000000191e+02 2.902810999999999808e+02 2.895088000000000079e+02 2.898956999999999766e+02 2.911551000000000045e+02 2.928614000000000033e+02 2.948964000000000283e+02 2.967427000000000135e+02 2.990681000000000154e+02 3.010987999999999829e+02 3.031843000000000075e+02 3.044873000000000047e+02 3.068740999999999985e+02 3.087563000000000102e+02 3.106909999999999741e+02 3.129798999999999864e+02 3.150769000000000233e+02 3.171816000000000031e+02 3.191743000000000166e+02 3.208682000000000016e+02 3.227565000000000168e+02 3.244150000000000205e+02 3.253202999999999747e+02 3.268131000000000199e+02 3.281963000000000079e+02 3.297662000000000262e+02 3.316053999999999746e+02 3.324843999999999937e+02 3.332844000000000051e+02 3.344053999999999860e+02 3.349203999999999724e+02 3.354243000000000166e+02 3.358387000000000171e+02 3.361329999999999814e+02 3.360919999999999845e+02 3.357728999999999928e+02 3.357964000000000055e+02 3.365178999999999974e+02 3.372773000000000252e+02 3.381886999999999830e+02 3.392418999999999869e+02 3.399723999999999933e+02 3.404547000000000025e+02 3.408206000000000131e+02 3.414055000000000177e+02 3.420527999999999906e+02 3.424110000000000014e+02 3.425344999999999800e+02 3.422592999999999961e+02 3.424338000000000193e+02 3.433720999999999890e+02 3.444214000000000055e+02 3.451125999999999863e+02 3.456143999999999892e+02 3.463784999999999741e+02 3.472706999999999766e+02 3.476607000000000198e+02 3.479639999999999986e+02 -9.999000000000000000e+03 -9.999000000000000000e+03 -9.999000000000000000e+03 -9.999000000000000000e+03 -9.999000000000000000e+03 -9.999000000000000000e+03 -9.999000000000000000e+03 -9.999000000000000000e+03 -9.999000000000000000e+03 -9.999000000000000000e+03 -9.999000000000000000e+03 -9.999000000000000000e+03 -9.999000000000000000e+03 -9.999000000000000000e+03 -9.999000000000000000e+03 -9.999000000000000000e+03 -9.999000000000000000e+03 -9.999000000000000000e+03 -9.999000000000000000e+03
-9.999000000000000000e+03 -9.999000000000000000e+03 -9.999000000000000000e+03 -9.999000000000000000e+03 -9.999000000000000000e+03 2.988962000000000216e+02 2.988186999999999784e+02 3.002656999999999812e+02 2.999017000000000053e+02 2.992807999999999993e+02 3.002701999999999884e+02 2.998824999999999932e+02 3.000597999999999956e+02 3.028029000000000224e+02 3.027191000000000258e+02 3.021807000000000016e+02 3.020147999999999797e+02 3.015432000000000130e+02 3.013971000000000231e+02 2.999134000000000242e+02 2.999134000000000242e+02 3.009445000000000050e+02 3.017654999999999745e+02 3.015987999999999829e+02 3.010459999999999923e+02 3.013467999999999734e+02 2.999485000000000241e+02 2.991062000000000012e+02 2.979322000000000230e+02 2.969381999999999948e+02 2.957748000000000275e+02 2.947884000000000242e+02 2.942817000000000007e+02 2.937504999999999882e+02 2.933987000000000194e+02 2.929845000000000255e+02 2.922791000000000281e+02 2.916965000000000146e+02 2.910296000000000163e+02 2.907572999999999865e+02 2.905547000000000253e+02 2.902454999999999927e+02 2.903217999999999961e+02 2.914907999999999788e+02 2.925985000000000014e+02 2.955565000000000282e+02 2.962289000000000101e+02 2.986361999999999739e+02 3.004372000000000185e+02 3.027543999999999755e+02 3.037873999999999910e+02 3.058951999999999884e+02 3.082762000000000171e+02 3.101358000000000175e+02 3.120013000000000147e+02 3.141918000000000006e+02 3.159719999999999800e+02 3.180565000000000282e+02 3.197028999999999996e+02 3.219132999999999925e+02 3.233937999999999988e+02 3.243177999999999770e+02 3.255527000000000157e+02 3.267814999999999941e+02 3.284619000000000142e+02 3.297979000000000269e+02 3.309203999999999724e+02 3.323516000000000190e+02 3.332538000000000125e+02 3.337076999999999884e+02 3.346232999999999720e+02 3.350559999999999832e+02 3.354058999999999742e+02 3.352466999999999757e+02 3.350065999999999917e+02 3.351546999999999912e+02 3.356408000000000129e+02 3.364938999999999965e+02 3.372420999999999935e+02 3.383691000000000031e+02 3.392948999999999842e+02 3.398156000000000176e+02 3.399246999999999730e+02 3.410375000000000227e+02 3.416736999999999966e+02 3.414114000000000146e+02 3.416358000000000175e+02 3.415962999999999852e+02 3.418296000000000276e+02 3.428450000000000273e+02 3.441596000000000117e+02 3.449046999999999912e+02 3.453163000000000125e+02 3.459961999999999875e+02 3.469112000000000080e+02 3.476383000000000152e+02 -9.999000000000000000e+03 -9.999000000000000000e+03 -9.999000000000000000e+03 -9.999000000000000000e+03 -9.999000000000000000e+03 -9.999000000000000000e+03 -9.999000000000000000e+03 -9.999000000000000000e+03 -9.999000000000000000e+03 -9.999000000000000000e+03 -9.999000000000000000e+03 -9.999000000000000000e+03 -9.999000000000000000e+03 -9.999000000000000000e+03 -9.999000000000000000e+03 -9.999000000000000000e+03 -9.999000000000000000e+03 -9.999000000000000000e+03 -9.999000000000000000e+03 -9.999000000000000000e+03
-9.999000000000000000e+03 -9.999000000000000000e+03 -9.999000000000000000e+03 -9.999000000000000000e+03 -9.999000000000000000e+03 -9.999000000000000000e+03 3.000973999999999933e+02 3.007196000000000140e+02 3.007180000000000177e+02 3.000819000000000187e+02 3.007839000000000169e+02 3.025742000000000189e+02 3.016490000000000009e+02 3.039169999999999732e+02 3.033170999999999822e+02 3.026573000000000206e+02 3.018856000000000108e+02 3.010097999999999843e+02 2.999134000000000242e+02 2.999134000000000242e+02 3.007135000000000105e+02 3.018768000000000029e+02 3.023559999999999945e+02 3.015987999999999829e+02 3.017042999999999893e+02 3.020120999999999754e+02 3.001897000000000162e+02 2.994814000000000078e+02 2.988650000000000091e+02 2.980427000000000248e+02 2.966139999999999759e+02 2.952898999999999887e+02 2.946544999999999845e+02 2.940330999999999904e+02 2.937259000000000242e+02 2.935611000000000104e+02 2.928460999999999785e+02 2.922583999999999946e+02 2.917631000000000085e+02 2.912008999999999901e+02 2.910552999999999884e+02 2.907945000000000277e+02 2.908193999999999733e+02 2.919689999999999941e+02 2.924784999999999968e+02 2.952909000000000219e+02 2.964934999999999832e+02 2.980978000000000065e+02 2.998199000000000183e+02 3.020237000000000194e+02 3.032916000000000167e+02 3.053765000000000214e+02 3.073888999999999783e+02 3.091395999999999731e+02 3.112606000000000108e+02 3.130917999999999779e+02 3.147006999999999834e+02 3.165256999999999721e+02 3.181313999999999851e+02 3.196761000000000195e+02 3.216000999999999976e+02 3.228281999999999812e+02 3.241292000000000257e+02 3.249621999999999957e+02 3.268023000000000025e+02 3.281854999999999905e+02 3.295337999999999852e+02 3.308648000000000025e+02 3.317312999999999761e+02 3.323881000000000085e+02 3.333883999999999901e+02 3.342760999999999854e+02 3.344803999999999746e+02 3.344243999999999915e+02 3.343562000000000012e+02 3.346820000000000164e+02 3.350375000000000227e+02 3.358394000000000119e+02 3.364615999999999758e+02 3.375783000000000129e+02 3.383306999999999789e+02 3.389528000000000247e+02 3.392479000000000156e+02 3.403913999999999760e+02 3.408432000000000244e+02 3.409651999999999816e+02 3.417363000000000284e+02 3.414467000000000212e+02 3.416918999999999755e+02 3.429900999999999840e+02 3.439076000000000022e+02 3.443143999999999778e+02 3.448675000000000068e+02 3.455312999999999874e+02 3.466351999999999975e+02 3.474707000000000221e+02 -9.999000000000000000e+03 -9.999000000000000000e+03 -9.999000000000000000e+03 -9.999000000000000000e+03 -9.999000000000000000e+03 -9.999000000000000000e+03 -9.999000000000000000e+03 -9.999000000000000000e+03 -9.999000000000000000e+03 -9.999000000000000000e+03 -9.999000000000000000e+03 -9.999000000000000000e+03 -9.999000000000000000e+03 -9.999000000000000000e+03 -9.999000000000000000e+03 -9.999000000000000000e+03 -9.999000000000000000e+03 -9.999000000000000000e+03 -9.999000000000000000e+03 -9.999000000000000000e+03
-9.999000000000000000e+03 -9.999000000000000000e+03 -9.999000000000000000e+03 -9.999000000000000000e+03 -9.999000000000000000e+03 -9.999000000000000000e+03 -9.999000000000000000e+03 -9.999000000000000000e+03 3.010575999999999794e+02 3.008165999999999940e+02 3.014076000000000022e+02 3.036003000000000043e+02 3.027339999999999804e+02 3.047760000000000105e+02 3.045264000000000237e+02 3.034916999999999803e+02 3.030319999999999823e+02 3.015002000000000066e+02 2.999134000000000242e+02 2.999134000000000242e+02 3.008029999999999973e+02 3.018317999999999870e+02 3.016927000000000021e+02 3.015987999999999829e+02 3.025135000000000218e+02 3.027198000000000206e+02 3.008530999999999835e+02 3.001308999999999969e+02 2.997250000000000227e+02 2.992429999999999950e+02 2.981299999999999955e+02 2.964913999999999987e+02 2.952671000000000276e+02 2.944096999999999866e+02 2.943186000000000035e+02 2.942683999999999855e+02 2.934476999999999975e+02 2.926843999999999824e+02 2.921313999999999851e+02 2.917198000000000206e+02 2.915235000000000127e+02 2.912395999999999958e+02 2.912968000000000188e+02 2.917203999999999837e+02 2.933731999999999971e+02 2.953027999999999906e+02 2.960067000000000235e+02 2.979927999999999884e+02 2.994418000000000006e+02 3.011064000000000078e+02 3.022196999999999889e+02 3.041517999999999802e+02 3.063213999999999828e+02 3.080794999999999959e+02 3.099372000000000185e+02 3.117662000000000262e+02 3.138732999999999720e+02 3.150319999999999823e+02 3.163091999999999757e+02 3.175803000000000225e+02 3.193018999999999892e+02 3.210317999999999756e+02 3.225969999999999800e+02 3.234746000000000095e+02 3.249481000000000108e+02 3.261345000000000027e+02 3.275647999999999911e+02 3.290486000000000217e+02 3.301739999999999782e+02 3.312456999999999994e+02 3.323781999999999925e+02 3.333836000000000013e+02 3.333482999999999947e+02 3.336940000000000168e+02 3.337595999999999776e+02 3.342391000000000076e+02 3.347235999999999763e+02 3.353831000000000131e+02 3.358955000000000268e+02 3.368018000000000143e+02 3.378088999999999942e+02 3.383881999999999834e+02 3.388772999999999911e+02 3.398559999999999945e+02 3.401311000000000035e+02 3.401741999999999848e+02 3.413238000000000056e+02 3.414467000000000212e+02 3.419633999999999787e+02 3.428566999999999894e+02 3.435303000000000111e+02 3.439343999999999824e+02 3.444112000000000080e+02 3.451030999999999835e+02 3.464164999999999850e+02 3.473602999999999952e+02 -9.999000000000000000e+03 -9.999000000000000000e+03 -9.999000000000000000e+03 -9.999000000000000000e+03 -9.999000000000000000e+03 -9.999000000000000000e+03 -9.999000000000000000e+03 -9.999000000000000000e+03 -9.999000000000000000e+03 -9.999000000000000000e+03 -9.999000000000000000e+03 -9.999000000000000000e+03 -9.999000000000000000e+03 -9.999000000000000000e+03 -9.999000000000000000e+03 -9.999000000000000000e+03 -9.999000000000000000e+03 -9.999000000000000000e+03 -9.999000000000000000e+03 -9.999000000000000000e+03
-9.999000000000000000e+03 -9.999000000000000000e+03 -9.999000000000000000e+03 -9.999000000000000000e+03 -9.999000000000000000e+03 -9.999000000000000000e+03 -9.999000000000000000e+03 -9.999000000000000000e+03 3.018994000000000142e+02 3.018568000000000211e+02 3.020004999999999882e+02 3.020004999999999882e+02 3.029159999999999968e+02 3.049832999999999856e+02 3.045038999999999874e+02 3.049064999999999941e+02 3.045656999999999925e+02 3.023360000000000127e+02 3.012096000000000231e+02 3.015876000000000090e+02 3.014812999999999761e+02 3.023736999999999853e+02 3.025819999999999936e+02 3.034202999999999975e+02 3.043281999999999812e+02 3.028534999999999968e+02 3.016447000000000003e+02 3.010536999999999921e+02 3.003142000000000280e+02 2.999169999999999732e+02 2.988614999999999782e+02 2.971648000000000138e+02 2.958613000000000284e+02 2.951976999999999975e+02 2.950013000000000147e+02 2.945751999999999953e+02 2.939128000000000043e+02 2.932262999999999806e+02 2.925446000000000026e+02 2.921888000000000147e+02 2.919780000000000086e+02 2.916660999999999717e+02 2.918505000000000109e+02 2.922447000000000230e+02 2.940692000000000235e+02 2.954243999999999915e+02 2.962311000000000263e+02 2.977937999999999761e+02 2.989762999999999806e+02 3.005289999999999964e+02 3.015640999999999963e+02 3.027857000000000198e+02 3.050522000000000276e+02 3.069818999999999960e+02 3.090455000000000041e+02 3.107463000000000193e+02 3.124812000000000012e+02 3.137124999999999773e+02 3.151281000000000176e+02 3.165172000000000025e+02 3.178716999999999757e+02 3.195153999999999996e+02 3.207751999999999839e+02 3.220400999999999954e+02 3.233519999999999754e+02 3.244714999999999918e+02 3.259363000000000170e+02 3.271820000000000164e+02 3.284821999999999775e+02 3.296465000000000032e+02 3.307690000000000055e+02 3.320387000000000057e+02 3.322486999999999853e+02 3.326532000000000266e+02 3.331267000000000280e+02 3.337628000000000270e+02 3.341969000000000278e+02 3.347447999999999979e+02 3.355507000000000062e+02 3.364608000000000061e+02 3.373722999999999956e+02 3.380108999999999924e+02 3.384991999999999734e+02 3.393127999999999815e+02 3.398654999999999973e+02 3.404361000000000104e+02 3.407964000000000055e+02 3.414184999999999945e+02 3.422173000000000229e+02 3.430280000000000200e+02 3.433801000000000272e+02 3.437382999999999811e+02 3.440901999999999816e+02 3.445711999999999762e+02 3.461340999999999894e+02 3.471512000000000171e+02 -9.999000000000000000e+03 -9.999000000000000000e+03 -9.999000000000000000e+03 -9.999000000000000000e+03 -9.999000000000000000e+03 -9.999000000000000000e+03 -9.999000000000000000e+03 -9.999000000000000000e+03 -9.999000000000000000e+03 -9.999000000000000000e+03 -9.999000000000000000e+03 -9.999000000000000000e+03 -9.999000000000000000e+03 -9.999000000000000000e+03 -9.999000000000000000e+03 -9.999000000000000000e+03 -9.999000000000000000e+03 -9.999000000000000000e+03 -9.999000000000000000e+03 -9.999000000000000000e+03
-9.999000000000000000e+03 -9.999000000000000000e+03 -9.999000000000000000e+03 -9.999000000000000000e+03 -9.999000000000000000e+03 -9.999000000000000000e+03 -9.999000000000000000e+03 -9.999000000000000000e+03 3.026272000000000162e+02 3.033002000000000180e+02 3.020806000000000040e+02 3.020156000000000063e+02 3.034556999999999789e+02 3.043795999999999822e+02 3.043795999999999822e+02 3.058768000000000029e+02 3.058852999999999724e+02 3.047475999999999772e+02 3.045398000000000138e+02 3.043274999999999864e+02 3.039558999999999855e+02 3.050964000000000169e+02 3.061884000000000015e+02 3.056782000000000039e+02 3.061655000000000086e+02 3.045642000000000280e+02 3.032379999999999995e+02 3.019907999999999788e+02 3.010566999999999780e+02 3.006759000000000128e+02 3.001777000000000157e+02 2.979703000000000088e+02 2.965745999999999754e+02 2.957853000000000065e+02 2.954284000000000106e+02 2.949583999999999833e+02 2.944329000000000178e+02 2.936433999999999855e+02 2.929245000000000232e+02 2.927094999999999914e+02 2.924965000000000259e+02 2.922470000000000141e+02 2.923199000000000183e+02 2.928763999999999896e+02 2.945575999999999794e+02 2.953369999999999891e+02 2.958632999999999811e+02 2.974828999999999724e+02 2.980439000000000078e+02 2.994972000000000207e+02 3.011370999999999754e+02 3.021401000000000181e+02 3.037690999999999804e+02 3.060380999999999858e+02 3.080819999999999936e+02 3.101309999999999718e+02 3.114798000000000116e+02 3.125464000000000055e+02 3.140008000000000266e+02 3.155856999999999744e+02 3.167248000000000161e+02 3.178084000000000060e+02 3.191922999999999888e+02 3.210665999999999940e+02 3.222230999999999881e+02 3.232504999999999882e+02 3.243500000000000227e+02 3.255307999999999993e+02 3.267538999999999874e+02 3.279778999999999769e+02 3.294375999999999749e+02 3.305615999999999985e+02 3.311784999999999854e+02 3.315937000000000126e+02 3.325557999999999765e+02 3.334067000000000007e+02 3.338269999999999982e+02 3.344408999999999992e+02 3.350099000000000160e+02 3.361259999999999764e+02 3.370547000000000253e+02 3.373933999999999855e+02 3.380416000000000167e+02 3.389485000000000241e+02 3.389859000000000151e+02 3.398270999999999731e+02 3.405826999999999884e+02 3.414680000000000177e+02 3.423931000000000040e+02 3.429610000000000127e+02 3.432542000000000257e+02 3.435993000000000279e+02 3.437810999999999808e+02 3.442053999999999974e+02 3.454207000000000107e+02 3.466816999999999780e+02 -9.999000000000000000e+03 -9.999000000000000000e+03 -9.999000000000000000e+03 -9.999000000000000000e+03 -9.999000000000000000e+03 -9.999000000000000000e+03 -9.999000000000000000e+03 -9.999000000000000000e+03 -9.999000000000000000e+03 -9.999000000000000000e+03 -9.999000000000000000e+03 -9.999000000000000000e+03 -9.999000000000000000e+03 -9.999000000000000000e+03 -9.999000000000000000e+03 -9.999000000000000000e+03 -9.999000000000000000e+03 -9.999000000000000000e+03 -9.999000000000000000e+03 -9.999000000000000000e+03
-9.999000000000000000e+03 -9.999000000000000000e+03 -9.999000000000000000e+03 -9.999000000000000000e+03 -9.999000000000000000e+03 -9.999000000000000000e+03 -9.999000000000000000e+03 -9.999000000000000000e+03 3.032078999999999951e+02 3.041213000000000193e+02 3.028886999999999716e+02 3.031786000000000172e+02 3.039730999999999881e+02 3.042685999999999922e+02 3.046884999999999764e+02 3.065459999999999923e+02 3.072982999999999834e+02 3.071675999999999931e+02 3.076059999999999945e+02 3.069114000000000146e+02 3.070951999999999771e+02 3.096746999999999730e+02 3.091945999999999799e+02 3.088111999999999853e+02 3.079646999999999935e+02 3.058629000000000246e+02 3.048616999999999848e+02 3.032117000000000075e+02 3.019001000000000090e+02 3.012511999999999830e+02 3.002241000000000213e+02 2.986716999999999871e+02 2.973392999999999802e+02 2.964852999999999952e+02 2.956736999999999966e+02 2.951111000000000217e+02 2.946157000000000039e+02 2.938564999999999827e+02 2.935110000000000241e+02 2.932989000000000033e+02 2.929547000000000025e+02 2.927957000000000107e+02 2.925828000000000202e+02 2.931161000000000172e+02 2.944383000000000266e+02 2.955557999999999765e+02 2.959913999999999987e+02 2.969848000000000070e+02 2.982719999999999914e+02 2.994707999999999970e+02 3.003822000000000116e+02 3.016619999999999777e+02 3.033629000000000246e+02 3.050960999999999785e+02 3.075113999999999805e+02 3.092391000000000076e+02 3.105686999999999784e+02 3.118652999999999906e+02 3.130994999999999777e+02 3.145903000000000134e+02 3.159345000000000141e+02 3.167642000000000166e+02 3.177977000000000203e+02 3.194372999999999934e+02 3.207386999999999944e+02 3.218856999999999857e+02 3.232660000000000196e+02 3.243530000000000086e+02 3.254868999999999915e+02 3.268054000000000201e+02 3.282094999999999914e+02 3.292500000000000000e+02 3.300844999999999914e+02 3.307964999999999804e+02 3.317033000000000129e+02 3.326283999999999992e+02 3.337316000000000145e+02 3.343704000000000178e+02 3.347989000000000033e+02 3.354975000000000023e+02 3.361016999999999939e+02 3.366456999999999766e+02 3.373306999999999789e+02 3.379660999999999831e+02 3.388215999999999894e+02 3.397579000000000065e+02 3.403552999999999997e+02 3.416772000000000276e+02 3.425998000000000161e+02 3.429123999999999910e+02 3.430004999999999882e+02 3.434375000000000000e+02 3.437131999999999721e+02 3.441313999999999851e+02 3.449381000000000199e+02 -9.999000000000000000e+03 -9.999000000000000000e+03 -9.999000000000000000e+03 -9.999000000000000000e+03 -9.999000000000000000e+03 -9.999000000000000000e+03 -9.999000000000000000e+03 -9.999000000000000000e+03 -9.999000000000000000e+03 -9.999000000000000000e+03 -9.999000000000000000e+03 -9.999000000000000000e+03 -9.999000000000000000e+03 -9.999000000000000000e+03 -9.999000000000000000e+03 -9.999000000000000000e+03 -9.999000000000000000e+03 -9.999000000000000000e+03 -9.999000000000000000e+03 -9.999000000000000000e+03 -9.999000000000000000e+03
-9.999000000000000000e+03 -9.999000000000000000e+03 -9.999000000000000000e+03 -9.999000000000000000e+03 -9.999000000000000000e+03 -9.999000000000000000e+03 -9.999000000000000000e+03 -9.999000000000000000e+03 3.032842999999999734e+02 3.034486999999999739e+02 3.046709999999999923e+02 3.046173000000000002e+02 3.046893999999999778e+02 3.049517999999999915e+02 3.059415999999999940e+02 3.080892999999999802e+02 3.096446000000000254e+02 3.097192000000000007e+02 3.102780000000000200e+02 3.093109000000000037e+02 3.112148000000000252e+02 3.135289999999999964e+02 3.111906000000000176e+02 3.101311999999999784e+02 3.087499000000000251e+02 3.071528000000000134e+02 3.062825000000000273e+02 3.045944000000000074e+02 3.029289999999999736e+02 3.018713000000000193e+02 3.007133000000000038e+02 2.991668000000000234e+02 2.980706000000000131e+02 2.969062999999999874e+02 2.960110999999999990e+02 2.952062999999999988e+02 2.947504999999999882e+02 2.943969000000000165e+02 2.941057000000000130e+02 2.939823000000000093e+02 2.934397999999999911e+02 2.933389999999999986e+02 2.932635000000000218e+02 2.934347999999999956e+02 2.946012999999999806e+02 2.953879000000000019e+02 2.971154000000000224e+02 2.974694999999999823e+02 2.983104999999999905e+02 2.992031999999999812e+02 3.001256999999999948e+02 3.019777000000000271e+02 3.035185000000000173e+02 3.049220000000000255e+02 3.069660000000000082e+02 3.089442999999999984e+02 3.102706000000000017e+02 3.114467000000000212e+02 3.126605999999999881e+02 3.139990999999999985e+02 3.151386999999999716e+02 3.159850999999999885e+02 3.169628999999999905e+02 3.179623000000000275e+02 3.189875000000000114e+02 3.204087999999999852e+02 3.218306000000000040e+02 3.234406999999999925e+02 3.247717999999999847e+02 3.259732999999999947e+02 3.271560000000000059e+02 3.279889999999999759e+02 3.288317999999999870e+02 3.297930999999999813e+02 3.306766000000000076e+02 3.322149000000000001e+02 3.331462000000000216e+02 3.341087999999999738e+02 3.346318999999999733e+02 3.350104000000000042e+02 3.357669999999999959e+02 3.368786000000000058e+02 3.372773000000000252e+02 3.376630000000000109e+02 3.383632999999999811e+02 3.393410000000000082e+02 3.409139000000000124e+02 3.419026000000000067e+02 3.426949000000000183e+02 3.429182000000000130e+02 3.429857999999999834e+02 3.433331999999999766e+02 3.437010000000000218e+02 -9.999000000000000000e+03 -9.999000000000000000e+03 -9.999000000000000000e+03 -9.999000000000000000e+03 -9.999000000000000000e+03 -9.999000000000000000e+03 -9.999000000000000000e+03 -9.999000000000000000e+03 -9.999000000000000000e+03 -9.999000000000000000e+03 -9.999000000000000000e+03 -9.999000000000000000e+03 -9.999000000000000000e+03 -9.999000000000000000e+03 -9.999000000000000000e+03 -9.999000000000000000e+03 -9.999000000000000000e+03 -9.999000000000000000e+03 -9.999000000000000000e+03 -9.999000000000000000e+03 -9.999000000000000000e+03 -9.999000000000000000e+03 -9.999000000000000000e+03
-9.999000000000000000e+03 -9.999000000000000000e+03 -9.999000000000000000e+03 -9.999000000000000000e+03 -9.999000000000000000e+03 -9.999000000000000000e+03 -9.999000000000000000e+03 -9.999000000000000000e+03 3.033654999999999973e+02 3.034696000000000140e+02 3.046897000000000162e+02 3.047801999999999794e+02 3.056895000000000095e+02 3.062844999999999800e+02 3.075144999999999982e+02 3.095631000000000199e+02 3.118482000000000198e+02 3.114655000000000200e+02 3.134311999999999898e+02 3.128244000000000256e+02 3.131462999999999965e+02 3.147567000000000235e+02 3.124673000000000229e+02 3.113048999999999751e+02 3.104076000000000022e+02 3.088720000000000141e+02 3.067099000000000046e+02 3.059048000000000229e+02 3.044492000000000189e+02 3.027153999999999883e+02 3.014655000000000200e+02 2.995951999999999771e+02 2.985224000000000046e+02 2.970649000000000228e+02 2.961073999999999842e+02 2.957823000000000206e+02 2.951268999999999778e+02 2.947217999999999734e+02 2.945586999999999875e+02 2.943869000000000256e+02 2.938890999999999849e+02 2.935575999999999794e+02 2.935813999999999737e+02 2.936773999999999774e+02 2.942259999999999991e+02 2.965672999999999888e+02 2.979916999999999803e+02 2.980339999999999918e+02 2.984463000000000079e+02 2.987726000000000113e+02 3.005477999999999952e+02 3.023960000000000150e+02 3.037839000000000169e+02 3.055330000000000155e+02 3.072683999999999855e+02 3.089186000000000263e+02 3.102491999999999734e+02 3.113229000000000042e+02 3.122330999999999790e+02 3.133684000000000083e+02 3.146016000000000190e+02 3.157531999999999925e+02 3.165536000000000172e+02 3.171215000000000259e+02 3.180335000000000036e+02 3.191748000000000047e+02 3.204110999999999763e+02 3.222035000000000196e+02 3.236562999999999874e+02 3.250462999999999738e+02 3.260706999999999880e+02 3.267615000000000123e+02 3.278215000000000146e+02 3.289280999999999722e+02 3.301087999999999738e+02 3.315371000000000095e+02 3.321623999999999910e+02 3.335889000000000237e+02 3.341471999999999980e+02 3.351689000000000078e+02 3.360378000000000043e+02 3.373075999999999794e+02 3.378548000000000116e+02 3.384895000000000209e+02 3.388786999999999807e+02 3.391743000000000166e+02 3.404374000000000251e+02 3.414558999999999855e+02 3.423018000000000143e+02 3.426986999999999739e+02 3.430482999999999834e+02 3.436274999999999977e+02 3.436243000000000052e+02 -9.999000000000000000e+03 -9.999000000000000000e+03 -9.999000000000000000e+03 -9.999000000000000000e+03 -9.999000000000000000e+03 -9.999000000000000000e+03 -9.999000000000000000e+03 -9.999000000000000000e+03 -9.999000000000000000e+03 -9.999000000000000000e+03 -9.999000000000000000e+03 -9.999000000000000000e+03 -9.999000000000000000e+03 -9.999000000000000000e+03 -9.999000000000000000e+03 -9.999000000000000000e+03 -9.999000000000000000e+03 -9.999000000000000000e+03 -9.999000000000000000e+03 -9.999000000000000000e+03 -9.999000000000000000e+03 -9.999000000000000000e+03 -9.999000000000000000e+03
-9.999000000000000000e+03 -9.999000000000000000e+03 -9.999000000000000000e+03 -9.999000000000000000e+03 -9.999000000000000000e+03 -9.999000000000000000e+03 -9.999000000000000000e+03 3.042919999999999732e+02 3.040987999999999829e+02 3.039526999999999930e+02 3.042167000000000030e+02 3.068143999999999778e+02 3.073115000000000236e+02 3.074300000000000068e+02 3.078872000000000071e+02 3.089857999999999834e+02 3.099531999999999812e+02 3.114105000000000132e+02 3.137386999999999944e+02 3.152001999999999953e+02 3.139757000000000176e+02 3.164991999999999734e+02 3.150482000000000085e+02 3.133111999999999853e+02 3.122943000000000211e+02 3.109601000000000113e+02 3.089291000000000054e+02 3.072785000000000082e+02 3.055557999999999765e+02 3.035982000000000198e+02 3.022420999999999935e+02 3.007443000000000097e+02 2.990407000000000153e+02 2.974836999999999989e+02 2.966317999999999984e+02 2.958614000000000033e+02 2.954406000000000176e+02 2.950292000000000030e+02 2.948704999999999927e+02 2.948693999999999846e+02 2.947441000000000031e+02 2.942703000000000202e+02 2.941847999999999956e+02 2.943358000000000061e+02 2.942259999999999991e+02 2.976025000000000205e+02 2.990067000000000235e+02 2.981548000000000229e+02 2.982318999999999960e+02 2.989069000000000074e+02 3.001548000000000229e+02 3.018322999999999752e+02 3.033448000000000206e+02 3.053184999999999718e+02 3.074246999999999730e+02 3.092715999999999781e+02 3.108265999999999849e+02 3.114748000000000161e+02 3.121909999999999741e+02 3.130172000000000025e+02 3.139390000000000214e+02 3.151992000000000189e+02 3.157397000000000276e+02 3.163140000000000214e+02 3.171703999999999724e+02 3.180760000000000218e+02 3.193039999999999736e+02 3.207851999999999748e+02 3.221224000000000274e+02 3.234035999999999831e+02 3.242905000000000086e+02 3.256578000000000088e+02 3.269361999999999853e+02 3.278817999999999984e+02 3.294279000000000224e+02 3.304769000000000005e+02 3.319836000000000240e+02 3.332952999999999975e+02 3.345101000000000226e+02 3.354648000000000252e+02 3.364861000000000217e+02 3.375849999999999795e+02 3.383878000000000270e+02 3.392042000000000144e+02 3.398444999999999823e+02 3.408736000000000104e+02 3.412321000000000026e+02 3.412321000000000026e+02 3.417255000000000109e+02 3.424737999999999829e+02 3.429273000000000025e+02 3.434184999999999945e+02 3.436014999999999873e+02 -9.999000000000000000e+03 -9.999000000000000000e+03 -9.999000000000000000e+03 -9.999000000000000000e+03 -9.999000000000000000e+03 -9.999000000000000000e+03 -9.999000000000000000e+03 -9.999000000000000000e+03 -9.999000000000000000e+03 -9.999000000000000000e+03 -9.999000000000000000e+03 -9.999000000000000000e+03 -9.999000000000000000e+03 -9.999000000000000000e+03 -9.999000000000000000e+03 -9.999000000000000000e+03 -9.999000000000000000e+03 -9.999000000000000000e+03 -9.999000000000000000e+03 -9.999000000000000000e+03 -9.999000000000000000e+03 -9.999000000000000000e+03 -9.999000000000000000e+03
-9.999000000000000000e+03 -9.999000000000000000e+03 -9.999000000000000000e+03 -9.999000000000000000e+03 -9.999000000000000000e+03 -9.999000000000000000e+03 -9.999000000000000000e+03 3.047081999999999766e+02 3.051829999999999927e+02 3.049216000000000122e+02 3.049397999999999911e+02 3.081546999999999912e+02 3.100380000000000109e+02 3.083505999999999858e+02 3.085511000000000195e+02 3.100796000000000276e+02 3.113956999999999766e+02 3.128181000000000154e+02 3.171154000000000224e+02 3.168867999999999938e+02 3.159300999999999817e+02 3.171111999999999966e+02 3.165563999999999965e+02 3.152905000000000086e+02 3.141972000000000094e+02 3.130163000000000011e+02 3.111712999999999738e+02 3.091920999999999822e+02 3.070749000000000137e+02 3.046784999999999854e+02 3.030686999999999784e+02 3.010400999999999954e+02 2.992868000000000279e+02 2.978573999999999842e+02 2.969587999999999965e+02 2.961136000000000195e+02 2.958084999999999809e+02 2.955267999999999802e+02 2.953458999999999719e+02 2.952357000000000085e+02 2.955720000000000027e+02 2.952328999999999724e+02 2.949239999999999782e+02 2.950276000000000067e+02 2.949340000000000259e+02 2.967334999999999923e+02 2.990717000000000212e+02 2.980169999999999959e+02 2.980631999999999948e+02 2.989893999999999892e+02 3.005783000000000129e+02 3.018124000000000251e+02 3.031395999999999731e+02 3.051861999999999853e+02 3.072708999999999833e+02 3.093245000000000005e+02 3.108672000000000253e+02 3.118917999999999893e+02 3.127918000000000234e+02 3.134839000000000055e+02 3.137783000000000015e+02 3.146207999999999743e+02 3.154572000000000003e+02 3.158661000000000172e+02 3.165434999999999945e+02 3.175212999999999965e+02 3.186390000000000100e+02 3.194202000000000226e+02 3.203088000000000193e+02 3.213636000000000195e+02 3.231179000000000201e+02 3.250720999999999776e+02 3.257468000000000075e+02 3.270507999999999811e+02 3.283367000000000075e+02 3.297620999999999754e+02 3.316981999999999857e+02 3.330908999999999764e+02 3.342934000000000196e+02 3.351292000000000257e+02 3.363125000000000000e+02 3.372993000000000166e+02 3.386745999999999981e+02 3.394794999999999732e+02 3.398349000000000046e+02 3.409372000000000185e+02 3.411435999999999922e+02 3.412636999999999716e+02 3.414884999999999877e+02 3.416490000000000009e+02 3.422746999999999957e+02 3.430380000000000109e+02 3.436417999999999893e+02 -9.999000000000000000e+03 -9.999000000000000000e+03 -9.999000000000000000e+03 -9.999000000000000000e+03 -9.999000000000000000e+03 -9.999000000000000000e+03 -9.999000000000000000e+03 -9.999000000000000000e+03 -9.999000000000000000e+03 -9.999000000000000000e+03 -9.999000000000000000e+03 -9.999000000000000000e+03 -9.999000000000000000e+03 -9.999000000000000000e+03 -9.999000000000000000e+03 -9.999000000000000000e+03 -9.999000000000000000e+03 -9.999000000000000000e+03 -9.999000000000000000e+03 -9.999000000000000000e+03 -9.999000000000000000e+03 -9.999000000000000000e+03 -9.999000000000000000e+03
-9.999000000000000000e+03 -9.999000000000000000e+03 -9.999000000000000000e+03 -9.999000000000000000e+03 -9.999000000000000000e+03 -9.999000000000000000e+03 -9.999000000000000000e+03 3.050851999999999862e+02 3.053938999999999737e+02 3.066415999999999826e+02 3.063374000000000024e+02 3.090282000000000266e+02 3.101598000000000184e+02 3.100502000000000180e+02 3.110045000000000073e+02 3.118983000000000061e+02 3.129010000000000105e+02 3.137499000000000251e+02 3.168500000000000227e+02 3.168799000000000206e+02 3.169769000000000005e+02 3.178125000000000000e+02 3.182096999999999980e+02 3.163274999999999864e+02 3.157989000000000033e+02 3.146988000000000056e+02 3.131691000000000145e+02 3.109345999999999890e+02 3.086936999999999784e+02 3.063184999999999718e+02 3.040265999999999735e+02 3.020946000000000140e+02 2.999909000000000106e+02 2.982814999999999941e+02 2.972726000000000113e+02 2.965197999999999752e+02 2.962622999999999820e+02 2.961798999999999751e+02 2.961815000000000282e+02 2.958269999999999982e+02 2.957846999999999866e+02 2.959503000000000270e+02 2.955735000000000241e+02 2.956009999999999991e+02 2.954893000000000143e+02 2.961238000000000170e+02 2.972826999999999771e+02 2.976138000000000261e+02 2.982174999999999727e+02 2.993706999999999994e+02 3.004535999999999945e+02 3.019680999999999926e+02 3.034087999999999852e+02 3.052346000000000004e+02 3.069823000000000093e+02 3.092762999999999920e+02 3.109177999999999997e+02 3.121628999999999792e+02 3.131057000000000130e+02 3.139198000000000093e+02 3.144384000000000015e+02 3.149671000000000163e+02 3.154196999999999775e+02 3.160269999999999868e+02 3.167599999999999909e+02 3.174932000000000016e+02 3.183460999999999785e+02 3.191703999999999724e+02 3.205679999999999836e+02 3.217884999999999991e+02 3.228879999999999768e+02 3.240529000000000224e+02 3.252794000000000096e+02 3.269073000000000206e+02 3.286041999999999916e+02 3.296628000000000043e+02 3.310502000000000180e+02 3.326306999999999903e+02 3.337092000000000098e+02 3.349655000000000200e+02 3.360129999999999768e+02 3.370656999999999925e+02 3.389375000000000000e+02 3.391114999999999782e+02 3.396918999999999755e+02 3.407176999999999794e+02 3.413655999999999722e+02 3.415502999999999929e+02 3.419807000000000130e+02 3.420742000000000189e+02 3.420742000000000189e+02 3.428969000000000165e+02 3.436927999999999770e+02 -9.999000000000000000e+03 -9.999000000000000000e+03 -9.999000000000000000e+03 -9.999000000000000000e+03 -9.999000000000000000e+03 -9.999000000000000000e+03 -9.999000000000000000e+03 -9.999000000000000000e+03 -9.999000000000000000e+03 -9.999000000000000000e+03 -9.999000000000000000e+03 -9.999000000000000000e+03 -9.999000000000000000e+03 -9.999000000000000000e+03 -9.999000000000000000e+03 -9.999000000000000000e+03 -9.999000000000000000e+03 -9.999000000000000000e+03 -9.999000000000000000e+03 -9.999000000000000000e+03 -9.999000000000000000e+03 -9.999000000000000000e+03 -9.999000000000000000e+03
-9.999000000000000000e+03 -9.999000000000000000e+03 -9.999000000000000000e+03 -9.999000000000000000e+03 -9.999000000000000000e+03 -9.999000000000000000e+03 3.065616999999999734e+02 3.052762000000000171e+02 3.055941000000000258e+02 3.074469000000000278e+02 3.063374000000000024e+02 3.086043000000000234e+02 3.098521000000000072e+02 3.104701000000000022e+02 3.120731999999999857e+02 3.120835999999999899e+02 3.138661999999999921e+02 3.151496999999999957e+02 3.173625999999999863e+02 3.170520000000000209e+02 3.173346999999999980e+02 3.187515000000000214e+02 3.187984000000000151e+02 3.177341000000000122e+02 3.166917000000000257e+02 3.160640000000000214e+02 3.148439999999999941e+02 3.128668999999999869e+02 3.104440000000000168e+02 3.078380000000000223e+02 3.054886000000000195e+02 3.031591000000000236e+02 3.007568999999999733e+02 2.989400999999999726e+02 2.976469999999999914e+02 2.968568999999999960e+02 2.966164999999999736e+02 2.966408999999999878e+02 2.968065000000000282e+02 2.966483000000000061e+02 2.963978999999999928e+02 2.963865000000000123e+02 2.963799000000000206e+02 2.962461000000000126e+02 2.962701000000000136e+02 2.967243000000000279e+02 2.975145999999999731e+02 2.979911999999999921e+02 2.984771999999999821e+02 2.998142000000000280e+02 3.006498000000000275e+02 3.022139000000000237e+02 3.036116999999999848e+02 3.055278000000000134e+02 3.070760000000000218e+02 3.092225999999999999e+02 3.110507000000000062e+02 3.124135999999999740e+02 3.132803000000000111e+02 3.141533999999999764e+02 3.149648000000000252e+02 3.156023999999999887e+02 3.160790999999999826e+02 3.166985999999999990e+02 3.174725000000000250e+02 3.179372000000000185e+02 3.183695000000000164e+02 3.192289000000000101e+02 3.207484999999999786e+02 3.217307999999999879e+02 3.225964999999999918e+02 3.236644000000000005e+02 3.251347000000000094e+02 3.265629000000000133e+02 3.279340000000000259e+02 3.291068000000000211e+02 3.303870000000000005e+02 3.316229000000000156e+02 3.328836000000000013e+02 3.344121000000000095e+02 3.356023000000000138e+02 3.368928999999999974e+02 3.383534000000000219e+02 3.387119999999999891e+02 3.397028000000000247e+02 3.406832999999999743e+02 3.410321000000000140e+02 3.415944999999999823e+02 3.419062999999999874e+02 3.422871999999999844e+02 3.423935999999999922e+02 3.429019999999999868e+02 3.435903000000000134e+02 -9.999000000000000000e+03 -9.999000000000000000e+03 -9.999000000000000000e+03 -9.999000000000000000e+03 -9.999000000000000000e+03 -9.999000000000000000e+03 -9.999000000000000000e+03 -9.999000000000000000e+03 -9.999000000000000000e+03 -9.999000000000000000e+03 -9.999000000000000000e+03 -9.999000000000000000e+03 -9.999000000000000000e+03 -9.999000000000000000e+03 -9.999000000000000000e+03 -9.999000000000000000e+03 -9.999000000000000000e+03 -9.999000000000000000e+03 -9.999000000000000000e+03 -9.999000000000000000e+03 -9.999000000000000000e+03 -9.999000000000000000e+03 -9.999000000000000000e+03
