ncols        215
nrows        23
xllcorner    731026
yllcorner    7135390
cellsize     20.000000000000
NODATA_value -9999
282.02984619140625 283.590423583984375 284.372650146484375 285.41143798828125 286.758544921875 289.077117919921875 288.156951904296875 286.78204345703125 285.16815185546875 284.701263427734375 285.37042236328125 285.815460205078125 282.0123291015625 280.050628662109375 279.524322509765625 277.97833251953125 278.5123291015625 281.6131591796875 282.83294677734375 280.65234375 277.109832763671875 274.1522216796875 274.94537353515625 274.679962158203125 273.06463623046875 272.992950439453125 273.25634765625 276.16400146484375 278.025360107421875 279.25830078125 279.09503173828125 275.983001708984375 274.269195556640625 274.04718017578125 274.224395751953125 273.844482421875 274.1195068359375 273.80670166015625 273.969085693359375 272.9068603515625 271.3177490234375 270.216278076171875 269.47186279296875 268.933135986328125 266.794525146484375 265.0377197265625 263.248138427734375 261.315826416015625 260.66400146484375 259.2928466796875 259.11865234375 260.020050048828125 259.768096923828125 259.5250244140625 259.33013916015625 259.33795166015625 259.51495361328125 260.754302978515625 262.156280517578125 260.35797119140625 259.162078857421875 259.989837646484375 259.91705322265625 264.342529296875 266.551300048828125 267.953399658203125 269.969024658203125 269.106414794921875 269.706390380859375 271.477508544921875 273.57574462890625 276.32110595703125 279.076385498046875 281.4217529296875 284.6861572265625 282.59912109375 281.21258544921875 283.437591552734375 286.39532470703125 286.649139404296875 284.018310546875 284.40032958984375 285.172576904296875 286.24835205078125 287.2127685546875 286.7059326171875 285.421600341796875 284.093170166015625 282.653656005859375 280.718719482421875 278.6956787109375 277.100830078125 275.656494140625 275.076934814453125 274.7047119140625 274.28326416015625 273.53570556640625 272.45501708984375 271.779754638671875 271.098175048828125 269.520172119140625 268.374176025390625 266.291900634765625 264.099761962890625 263.37939453125 260.820220947265625 259.363739013671875 256.884552001953125 254.4128875732421875 252.7081146240234375 250.6527862548828125 249.4879913330078125 249.4355621337890625 249.4167633056640625 249.02392578125 247.9160614013671875 248.62445068359375 251.3492889404296875 252.1746826171875 249.2290802001953125 247.521240234375 251.3158416748046875 246.169891357421875 244.0026702880859375 242.325164794921875 241.417083740234375 240.6923980712890625 238.9360198974609375 238.1589508056640625 237.8915252685546875 238.1137542724609375 238.04754638671875 236.9898223876953125 234.5823822021484375 233.3032989501953125 232.5346832275390625 231.9788818359375 230.1711578369140625 229.853790283203125 232.294677734375 233.447052001953125 235.9685211181640625 237.738677978515625 239.198699951171875 239.6515655517578125 240.9129180908203125 244.4739227294921875 246.5326080322265625 248.9412384033203125 249.79736328125 250.9880523681640625 253.039886474609375 254.7589569091796875 256.55816650390625 260.680267333984375 264.7203369140625 269.09197998046875 272.244140625 276.738250732421875 280.56170654296875 284.309600830078125 288.312164306640625 290.329315185546875 294.47369384765625 297.92413330078125 301.7939453125 305.97308349609375 311.8409423828125 316.707244873046875 320.05780029296875 322.902130126953125 325.9317626953125 327.63836669921875 328.548736572265625 332.064544677734375 336.647552490234375 341.823760986328125 345.12347412109375 347.734710693359375 349.841644287109375 352.073516845703125 353.94647216796875 356.235870361328125 359.81591796875 362.79962158203125 364.221160888671875 364.8734130859375 364.3592529296875 364.411224365234375 365.25482177734375 -9999 -9999 -9999 -9999 -9999 -9999 -9999 -9999 -9999 -9999 -9999 -9999 -9999 -9999 -9999 -9999 -9999 -9999 -9999 -9999 -9999 -9999 -9999 -9999 -9999
280.383819580078125 282.4569091796875 283.44097900390625 284.668212890625 286.71588134765625 287.982879638671875 287.521453857421875 286.323577880859375 284.800567626953125 284.312591552734375 285.7181396484375 284.39739990234375 282.79217529296875 281.590179443359375 280.671356201171875 277.48394775390625 276.879852294921875 277.552520751953125 277.48529052734375 276.956024169921875 275.54058837890625 273.642852783203125 274.5015869140625 274.295135498046875 273.80230712890625 272.243255615234375 273.752349853515625 274.0025634765625 274.35528564453125 274.533355712890625 274.73577880859375 274.25250244140625 273.944183349609375 273.885955810546875 274.527252197265625 274.3668212890625 273.806732177734375 274.031524658203125 273.613861083984375 273.562103271484375 272.118682861328125 271.17376708984375 269.03607177734375 268.21624755859375 266.7457275390625 265.682891845703125 263.84051513671875 262.2286376953125 260.7103271484375 260.089080810546875 258.77960205078125 258.527862548828125 259.22235107421875 258.96112060546875 258.976348876953125 259.055908203125 259.05401611328125 259.84271240234375 260.33868408203125 259.533172607421875 258.0689697265625 257.84600830078125 258.75885009765625 260.640716552734375 264.14410400390625 265.046142578125 266.955322265625 266.342071533203125 266.788055419921875 269.329345703125 271.498809814453125 273.848358154296875 275.536285400390625 276.7301025390625 278.454986572265625 276.154388427734375 278.155120849609375 281.723876953125 284.03521728515625 284.966033935546875 282.894256591796875 282.15667724609375 283.805755615234375 284.17279052734375 285.3448486328125 285.660858154296875 284.48370361328125 282.96533203125 281.448455810546875 279.761932373046875 277.58306884765625 275.021881103515625 273.629119873046875 272.902618408203125 272.009979248046875 271.148956298828125 271.240631103515625 270.583160400390625 269.50311279296875 268.330322265625 267.233673095703125 267.02545166015625 265.37506103515625 262.7296142578125 262.02178955078125 259.39532470703125 257.72918701171875 255.82757568359375 253.7479095458984375 252.1396331787109375 250.682525634765625 249.3968048095703125 249.3813323974609375 248.2834014892578125 248.0233154296875 247.564697265625 247.3653717041015625 248.9418792724609375 248.410858154296875 247.894287109375 247.5044708251953125 250.09033203125 247.243499755859375 245.9573211669921875 245.11981201171875 243.203216552734375 242.0288848876953125 239.6650543212890625 238.2214813232421875 237.8915557861328125 238.4238739013671875 237.3969573974609375 234.98150634765625 233.0973663330078125 232.6817169189453125 232.1114349365234375 231.289703369140625 228.8457183837890625 231.1129608154296875 234.2581787109375 235.1332855224609375 236.4278411865234375 238.00982666015625 238.489471435546875 238.7629852294921875 240.60308837890625 244.3055419921875 245.4313507080078125 247.5416259765625 247.8516998291015625 249.0181121826171875 250.3007049560546875 251.4954833984375 253.7188873291015625 257.6778564453125 261.161529541015625 265.430267333984375 268.618896484375 272.440216064453125 276.177764892578125 280.132080078125 283.974212646484375 289.135223388671875 292.899566650390625 296.0960693359375 300.0982666015625 304.67547607421875 310.3270263671875 315.2711181640625 319.0787353515625 321.967041015625 323.7344970703125 325.064849853515625 327.250274658203125 331.132476806640625 335.386749267578125 340.48712158203125 344.56451416015625 347.924072265625 350.661895751953125 353.82318115234375 354.976104736328125 357.324615478515625 359.70196533203125 363.11126708984375 365.56048583984375 367.2022705078125 367.514923095703125 369.1201171875 369.576080322265625 -9999 -9999 -9999 -9999 -9999 -9999 -9999 -9999 -9999 -9999 -9999 -9999 -9999 -9999 -9999 -9999 -9999 -9999 -9999 -9999 -9999 -9999 -9999 -9999 -9999
280.246307373046875 281.127777099609375 281.553253173828125 282.0206298828125 284.64019775390625 285.5726318359375 284.97247314453125 283.352203369140625 282.899658203125 283.0281982421875 284.52679443359375 283.224639892578125 281.6934814453125 281.835052490234375 280.193206787109375 276.796356201171875 276.272552490234375 275.769683837890625 274.898529052734375 274.724456787109375 274.406341552734375 274.001190185546875 272.83648681640625 273.7900390625 273.377716064453125 271.76104736328125 273.29498291015625 273.680419921875 273.78082275390625 273.893341064453125 273.973968505859375 273.7484130859375 273.34930419921875 273.7412109375 273.897918701171875 273.913818359375 273.970916748046875 273.850341796875 273.49139404296875 273.21533203125 272.34368896484375 270.736328125 269.1207275390625 267.939453125 266.581939697265625 265.389373779296875 264.10662841796875 262.63323974609375 261.752960205078125 260.0792236328125 259.541839599609375 258.225189208984375 258.79302978515625 258.54376220703125 258.583587646484375 258.740325927734375 258.71527099609375 259.360321044921875 259.324859619140625 259.114990234375 258.58966064453125 257.38580322265625 258.048736572265625 258.652130126953125 261.624847412109375 261.82794189453125 263.666351318359375 265.301727294921875 265.695220947265625 268.081512451171875 270.748199462890625 271.6846923828125 272.46075439453125 272.442047119140625 273.22515869140625 272.169586181640625 273.59271240234375 277.88385009765625 281.310455322265625 282.61126708984375 282.2464599609375 281.126617431640625 282.39306640625 281.885650634765625 282.951904296875 283.946014404296875 283.669158935546875 281.838134765625 279.8013916015625 278.09674072265625 275.736419677734375 272.90283203125 270.59088134765625 269.502593994140625 268.939117431640625 267.506988525390625 268.168853759765625 268.139862060546875 267.217498779296875 266.22119140625 265.443695068359375 264.392242431640625 263.503387451171875 260.738433837890625 258.307464599609375 256.406890869140625 255.60028076171875 253.9985504150390625 252.483642578125 252.4840240478515625 250.721527099609375 248.8300018310546875 248.0345916748046875 247.816131591796875 248.0087890625 248.386199951171875 246.935089111328125 247.0873870849609375 246.911224365234375 246.9279937744140625 247.1696624755859375 248.2697296142578125 250.534820556640625 249.022552490234375 248.0302276611328125 245.651153564453125 243.6429595947265625 242.220794677734375 240.743682861328125 239.8377532958984375 239.78106689453125 238.589508056640625 236.6202545166015625 234.010101318359375 232.7846832275390625 232.0976104736328125 231.4838714599609375 228.8456878662109375 232.1706085205078125 233.5352325439453125 233.80096435546875 236.768341064453125 237.1412200927734375 237.4068603515625 238.9246673583984375 241.3748931884765625 243.2334442138671875 243.7820892333984375 245.166290283203125 246.35919189453125 247.377685546875 247.531585693359375 249.1606597900390625 252.4011688232421875 254.821258544921875 257.8427734375 262.311279296875 265.99169921875 268.595458984375 272.708587646484375 277.3062744140625 282.437408447265625 287.356231689453125 291.554779052734375 294.31390380859375 298.366058349609375 303.873931884765625 308.879608154296875 313.88629150390625 316.80963134765625 320.217010498046875 321.56536865234375 323.063323974609375 325.82568359375 330.09747314453125 334.270294189453125 339.2994384765625 344.157562255859375 347.27294921875 349.85882568359375 352.54620361328125 354.971099853515625 356.857879638671875 359.753173828125 363.03814697265625 365.9622802734375 368.004180908203125 369.09808349609375 370.758270263671875 372.191497802734375 -9999 -9999 -9999 -9999 -9999 -9999 -9999 -9999 -9999 -9999 -9999 -9999 -9999 -9999 -9999 -9999 -9999 -9999 -9999 -9999 -9999 -9999 -9999 -9999 -9999
282.070770263671875 279.628326416015625 279.509063720703125 280.4439697265625 280.91387939453125 282.170745849609375 282.859344482421875 280.96051025390625 280.807342529296875 281.0413818359375 281.39141845703125 280.947418212890625 279.826171875 280.375732421875 279.138702392578125 276.810638427734375 276.443511962890625 275.9122314453125 274.94097900390625 274.424774169921875 274.035919189453125 273.628204345703125 273.40240478515625 272.07476806640625 272.07476806640625 271.384490966796875 272.65960693359375 273.47100830078125 273.4544677734375 273.330535888671875 273.624053955078125 273.90643310546875 273.037933349609375 273.28546142578125 273.84747314453125 273.365081787109375 272.49383544921875 272.201202392578125 272.2767333984375 272.470367431640625 272.261688232421875 271.9063720703125 269.798858642578125 268.024383544921875 266.481048583984375 265.144378662109375 263.92242431640625 262.57720947265625 261.77972412109375 260.862884521484375 259.878021240234375 259.13128662109375 257.607452392578125 258.238555908203125 258.218658447265625 258.107696533203125 258.4327392578125 259.367279052734375 259.90704345703125 259.141876220703125 258.251220703125 257.93841552734375 256.555694580078125 256.789459228515625 258.471527099609375 259.349884033203125 260.48162841796875 262.5928955078125 264.5340576171875 266.64105224609375 268.41986083984375 269.945892333984375 269.502288818359375 268.641693115234375 269.652923583984375 269.52996826171875 270.35784912109375 273.98699951171875 277.03192138671875 279.5284423828125 280.031524658203125 279.94085693359375 280.577545166015625 279.6719970703125 280.438995361328125 281.53271484375 281.7052001953125 280.127716064453125 277.81982421875 275.881622314453125 273.45367431640625 270.451568603515625 267.243988037109375 265.477996826171875 264.654022216796875 263.871337890625 265.02593994140625 265.24566650390625 265.23876953125 264.131561279296875 263.8046875 261.585418701171875 259.994140625 258.16705322265625 255.7917327880859375 255.343536376953125 254.54327392578125 252.5801239013671875 251.1609649658203125 251.6472015380859375 250.3129425048828125 248.61810302734375 247.861053466796875 247.76824951171875 247.7197265625 247.356231689453125 247.089752197265625 246.847320556640625 246.8067474365234375 247.0802459716796875 247.613494873046875 247.820770263671875 250.3238525390625 243.6991119384765625 242.711578369140625 244.5865020751953125 244.3796844482421875 243.7618408203125 245.984710693359375 247.837371826171875 246.8566741943359375 243.64422607421875 240.0047760009765625 236.59796142578125 234.1175384521484375 233.0506744384765625 233.3250274658203125 228.8456573486328125 230.2088623046875 230.617645263671875 232.084442138671875 233.385223388671875 233.3742828369140625 234.6086273193359375 238.843505859375 241.7587890625 242.5802154541015625 242.35504150390625 242.793212890625 245.0664215087890625 245.852874755859375 246.0870513916015625 247.8951263427734375 249.8481903076171875 251.8680419921875 255.079742431640625 259.5428466796875 263.550567626953125 266.3826904296875 272.01934814453125 276.5797119140625 280.4547119140625 285.439422607421875 289.642669677734375 292.25897216796875 295.5433349609375 301.407470703125 306.8665771484375 311.943267822265625 314.68426513671875 317.438507080078125 319.09429931640625 320.484588623046875 323.67864990234375 328.68353271484375 332.974456787109375 338.3699951171875 343.955902099609375 347.380218505859375 348.89569091796875 351.007568359375 353.649627685546875 355.265777587890625 359.70697021484375 363.87872314453125 366.472686767578125 368.69281005859375 369.612457275390625 370.517791748046875 372.193206787109375 371.57232666015625 -9999 -9999 -9999 -9999 -9999 -9999 -9999 -9999 -9999 -9999 -9999 -9999 -9999 -9999 -9999 -9999 -9999 -9999 -9999 -9999 -9999 -9999 -9999 -9999
282.867645263671875 280.27825927734375 279.410980224609375 279.06024169921875 278.541656494140625 278.220672607421875 279.61395263671875 279.02490234375 279.018341064453125 279.281341552734375 279.241363525390625 279.695770263671875 279.2542724609375 279.705718994140625 279.05841064453125 276.61346435546875 275.52008056640625 275.143402099609375 274.738067626953125 274.3623046875 273.723968505859375 272.90863037109375 272.939788818359375 272.592864990234375 271.58856201171875 270.43804931640625 272.116119384765625 273.7044677734375 273.566162109375 273.157073974609375 274.51263427734375 276.1114501953125 274.228973388671875 273.03790283203125 272.54400634765625 272.8509521484375 272.346160888671875 272.113555908203125 271.78936767578125 271.676544189453125 272.00836181640625 272.502227783203125 270.80694580078125 268.40887451171875 266.232666015625 264.815093994140625 264.02496337890625 263.1331787109375 262.116485595703125 261.206085205078125 260.272552490234375 259.057525634765625 258.810577392578125 256.90899658203125 257.912994384765625 257.798126220703125 257.71270751953125 259.52288818359375 260.324127197265625 259.902740478515625 258.423004150390625 257.768707275390625 257.302947998046875 255.953704833984375 255.911712646484375 257.83721923828125 258.573028564453125 258.60595703125 261.61126708984375 263.982330322265625 266.22357177734375 268.192596435546875 268.500823974609375 267.077606201171875 267.038665771484375 267.25103759765625 267.761993408203125 270.676239013671875 273.041656494140625 275.92364501953125 276.46771240234375 278.989715576171875 279.220062255859375 277.861328125 277.9791259765625 278.55963134765625 278.84991455078125 277.4129638671875 275.23779296875 273.191680908203125 270.895050048828125 268.2720947265625 263.71990966796875 261.013580322265625 261.5142822265625 260.508331298828125 260.4896240234375 261.287445068359375 261.12579345703125 261.746734619140625 262.83563232421875 260.903900146484375 258.813873291015625 257.317596435546875 254.1493988037109375 253.3722381591796875 252.9345550537109375 251.273345947265625 249.800567626953125 249.6603546142578125 249.28143310546875 248.3515472412109375 247.58843994140625 247.0879974365234375 247.14508056640625 247.0366668701171875 246.995574951171875 245.781829833984375 245.7631683349609375 247.0193939208984375 248.4953155517578125 250.5060272216796875 246.455902099609375 239.791778564453125 238.6175384521484375 239.60748291015625 243.0333709716796875 247.744171142578125 252.794158935546875 253.021270751953125 253.5695343017578125 252.150848388671875 247.2509002685546875 241.677642822265625 237.134613037109375 234.6705169677734375 233.0071563720703125 231.346923828125 228.4205169677734375 227.0627899169921875 228.5545654296875 230.697601318359375 231.1542205810546875 233.1384429931640625 237.6748809814453125 238.5716705322265625 238.4107208251953125 237.655181884765625 241.42401123046875 243.9215850830078125 244.0986175537109375 244.767547607421875 245.910308837890625 247.251861572265625 249.92962646484375 252.3409576416015625 255.969635009765625 260.376190185546875 265.687347412109375 269.98223876953125 274.079345703125 278.20245361328125 283.144378662109375 286.908660888671875 289.6309814453125 292.5477294921875 297.3670654296875 303.15863037109375 309.219451904296875 312.6927490234375 314.71502685546875 315.974945068359375 317.194671630859375 320.447601318359375 325.66436767578125 330.629058837890625 336.58917236328125 343.490753173828125 347.42401123046875 349.000274658203125 350.11480712890625 352.017120361328125 353.818878173828125 357.5621337890625 362.82275390625 366.335479736328125 368.182281494140625 369.17218017578125 369.446380615234375 370.806121826171875 370.821075439453125 370.58050537109375 -9999 -9999 -9999 -9999 -9999 366.31341552734375 -9999 -9999 -9999 -9999 -9999 -9999 -9999 -9999 -9999 -9999 -9999 -9999 -9999 -9999 -9999 -9999 -9999
284.4027099609375 282.410430908203125 281.433746337890625 280.6544189453125 279.860260009765625 279.105804443359375 277.059234619140625 277.92755126953125 278.158935546875 278.327972412109375 278.312225341796875 278.8106689453125 278.99945068359375 278.738311767578125 277.629608154296875 276.10162353515625 275.140838623046875 274.65582275390625 274.286346435546875 273.73089599609375 272.77252197265625 271.83111572265625 272.24737548828125 271.51904296875 270.21044921875 270.43804931640625 272.099609375 272.541961669921875 272.68658447265625 272.894775390625 273.371246337890625 273.873992919921875 273.54132080078125 273.544342041015625 272.925445556640625 272.370452880859375 272.170684814453125 272.017059326171875 271.289031982421875 270.884765625 270.7747802734375 270.89471435546875 270.88983154296875 269.47119140625 266.949615478515625 264.970611572265625 263.027801513671875 262.302947998046875 262.534881591796875 261.443389892578125 260.396087646484375 259.846343994140625 259.331329345703125 256.729217529296875 256.454345703125 257.3245849609375 257.79827880859375 261.338531494140625 264.3018798828125 261.222442626953125 257.874237060546875 257.758514404296875 257.2088623046875 255.906463623046875 255.5653076171875 255.93927001953125 256.600738525390625 255.39605712890625 258.6285400390625 262.21856689453125 264.161773681640625 264.7183837890625 266.295623779296875 265.9647216796875 264.6568603515625 264.552154541015625 265.21478271484375 267.81658935546875 270.650726318359375 272.675537109375 273.15985107421875 276.253570556640625 277.07659912109375 276.109893798828125 275.3497314453125 274.53936767578125 274.263092041015625 273.1588134765625 271.01824951171875 269.485931396484375 267.11859130859375 264.877349853515625 262.005615234375 257.838134765625 258.052734375 256.755645751953125 257.079376220703125 256.887939453125 256.994293212890625 257.64776611328125 258.979248046875 259.321380615234375 256.95794677734375 253.7147369384765625 250.979034423828125 250.701629638671875 251.6312408447265625 250.6980743408203125 249.678375244140625 247.7141265869140625 247.7169189453125 247.3926239013671875 246.92657470703125 246.89300537109375 246.8180999755859375 246.8170013427734375 246.8004913330078125 246.751556396484375 245.72845458984375 246.7314605712890625 247.100555419921875 249.4880523681640625 242.73876953125 238.6794586181640625 237.830291748046875 237.8748779296875 242.128082275390625 247.39764404296875 253.0898895263671875 253.0124664306640625 254.3258514404296875 254.5191802978515625 253.1172332763671875 249.936004638671875 244.9308624267578125 240.160125732421875 234.914520263671875 232.8017730712890625 231.382598876953125 226.829132080078125 226.2237548828125 229.421844482421875 231.4046630859375 234.817047119140625 234.1257476806640625 232.588043212890625 233.405914306640625 235.1639404296875 238.3797607421875 239.8693389892578125 241.2885589599609375 241.2885894775390625 243.462432861328125 244.6938018798828125 247.4039154052734375 250.43072509765625 255.07208251953125 259.66656494140625 264.225128173828125 268.07763671875 271.51287841796875 276.157012939453125 281.085479736328125 284.0264892578125 286.77496337890625 289.59429931640625 294.01287841796875 299.51043701171875 305.168304443359375 308.94110107421875 311.399627685546875 313.21673583984375 314.21075439453125 316.955108642578125 322.056915283203125 327.754974365234375 333.192901611328125 341.45513916015625 347.18463134765625 348.90472412109375 349.703521728515625 351.08514404296875 352.65533447265625 354.88995361328125 359.519287109375 364.477783203125 367.60198974609375 368.178192138671875 368.53094482421875 369.19708251953125 369.918609619140625 370.470367431640625 -9999 -9999 -9999 -9999 -9999 366.779937744140625 364.954315185546875 364.573944091796875 363.73675537109375 -9999 -9999 -9999 -9999 -9999 -9999 -9999 -9999 -9999 -9999 -9999 -9999 -9999 -9999
286.748382568359375 284.22369384765625 282.839813232421875 281.86529541015625 280.883819580078125 279.6478271484375 278.271942138671875 276.191497802734375 277.382049560546875 278.336669921875 277.97296142578125 278.0323486328125 278.50054931640625 278.3486328125 278.0726318359375 276.8150634765625 275.434112548828125 275.062255859375 274.517730712890625 273.400482177734375 272.093017578125 270.92138671875 270.374114990234375 269.414764404296875 271.04583740234375 273.324676513671875 273.299530029296875 273.33343505859375 272.2181396484375 272.44915771484375 273.02239990234375 272.87286376953125 272.477783203125 272.290924072265625 272.992462158203125 273.08953857421875 272.538970947265625 271.41241455078125 270.972900390625 270.8046875 270.6165771484375 270.897003173828125 270.76263427734375 269.936248779296875 268.28814697265625 266.0843505859375 265.284088134765625 264.762237548828125 260.96270751953125 259.8258056640625 259.251190185546875 258.815277099609375 259.06982421875 258.781463623046875 256.441619873046875 255.764923095703125 258.985198974609375 261.963409423828125 263.35137939453125 258.8948974609375 257.01763916015625 257.835296630859375 257.534515380859375 257.20220947265625 256.051727294921875 253.967529296875 253.5205535888671875 253.6567230224609375 254.5932464599609375 258.89263916015625 261.9638671875 262.063629150390625 262.8701171875 263.657379150390625 263.177520751953125 262.50140380859375 261.601806640625 264.923370361328125 267.329345703125 269.424957275390625 270.21478271484375 273.2625732421875 274.3291015625 273.182037353515625 271.373504638671875 269.063507080078125 268.353118896484375 268.790313720703125 267.475341796875 264.823486328125 263.30853271484375 260.430389404296875 258.183380126953125 254.370086669921875 251.444549560546875 251.641632080078125 251.74542236328125 252.114837646484375 251.9992523193359375 251.9952850341796875 252.5847625732421875 252.0469818115234375 251.22967529296875 250.0430755615234375 249.3101654052734375 249.492095947265625 249.47552490234375 249.376190185546875 249.1871185302734375 248.184295654296875 247.44891357421875 247.128753662109375 246.8498687744140625 246.7868804931640625 246.7023773193359375 246.7271575927734375 246.7268218994140625 246.736419677734375 245.70855712890625 246.6918487548828125 246.7955322265625 247.210052490234375 244.2594451904296875 239.1190948486328125 237.6620025634765625 238.168731689453125 241.588470458984375 245.6777801513671875 251.6412811279296875 252.5306854248046875 254.1926116943359375 254.539459228515625 254.2397918701171875 253.9201507568359375 251.605438232421875 247.5898895263671875 241.3405303955078125 235.97857666015625 232.4661102294921875 230.332977294921875 227.961669921875 226.223724365234375 231.386383056640625 233.169677734375 231.510101318359375 237.980804443359375 239.90655517578125 240.5524444580078125 241.92254638671875 243.85211181640625 244.762298583984375 244.860382080078125 244.493377685546875 245.7818603515625 247.6308746337890625 249.30401611328125 253.150238037109375 258.654693603515625 263.08111572265625 267.3446044921875 269.725433349609375 273.51690673828125 277.65869140625 280.70257568359375 284.160003662109375 287.3292236328125 291.370880126953125 296.642486572265625 301.070343017578125 304.540008544921875 308.4796142578125 310.3426513671875 311.75274658203125 314.738616943359375 320.10699462890625 326.054229736328125 331.59552001953125 336.6253662109375 343.945037841796875 348.28399658203125 349.770904541015625 350.58013916015625 351.7379150390625 352.718536376953125 355.738677978515625 360.716217041015625 365.1678466796875 366.64013671875 367.04925537109375 367.295867919921875 368.571441650390625 369.23162841796875 370.1724853515625 -9999 -9999 -9999 368.2056884765625 367.022735595703125 365.175872802734375 363.746826171875 363.0810546875 -9999 -9999 -9999 -9999 -9999 -9999 -9999 -9999 -9999 -9999 -9999 -9999 -9999 -9999
287.795654296875 286.258026123046875 284.784942626953125 283.134796142578125 281.695648193359375 280.17266845703125 278.8743896484375 277.216156005859375 275.3231201171875 277.5738525390625 278.192901611328125 277.8717041015625 277.794952392578125 277.76300048828125 277.27490234375 276.830902099609375 276.05517578125 275.852386474609375 275.479339599609375 273.356842041015625 271.987640380859375 269.5133056640625 268.8447265625 269.9197998046875 271.080535888671875 272.786651611328125 273.23199462890625 274.029266357421875 271.762786865234375 271.535247802734375 272.415313720703125 272.44195556640625 271.69232177734375 271.547576904296875 273.082122802734375 273.639007568359375 272.831390380859375 271.41351318359375 270.884735107421875 270.781097412109375 270.589691162109375 270.36260986328125 270.069091796875 268.614471435546875 267.544921875 267.38592529296875 266.096405029296875 264.70733642578125 262.8187255859375 261.042510986328125 260.48846435546875 258.781890869140625 258.376495361328125 258.1414794921875 257.03631591796875 255.309478759765625 257.477081298828125 258.285552978515625 258.049041748046875 257.017578125 257.017608642578125 257.16827392578125 256.334686279296875 256.098907470703125 254.3958587646484375 253.4820404052734375 251.854949951171875 251.847564697265625 251.8475341796875 255.3143463134765625 259.759765625 260.1729736328125 260.667816162109375 262.263519287109375 261.2708740234375 260.32806396484375 259.055572509765625 261.140411376953125 262.73907470703125 265.32122802734375 268.3441162109375 269.510955810546875 269.478240966796875 268.123321533203125 266.444488525390625 265.80218505859375 264.96380615234375 264.490325927734375 264.04315185546875 261.97601318359375 258.79205322265625 255.9550933837890625 253.0029144287109375 250.282562255859375 244.904541015625 247.85302734375 247.75091552734375 247.9716949462890625 247.3364715576171875 246.34368896484375 246.349151611328125 247.1591796875 247.1889495849609375 248.101531982421875 247.6043548583984375 248.0193939208984375 248.06890869140625 248.116119384765625 247.3486328125 247.695556640625 248.7533721923828125 249.222015380859375 247.5369415283203125 246.775390625 245.6035308837890625 245.6996307373046875 245.7010955810546875 245.7011260986328125 245.7011566162109375 246.7147064208984375 246.7210693359375 247.5460357666015625 246.389739990234375 240.34478759765625 237.6619720458984375 238.84619140625 240.293182373046875 243.8484344482421875 247.256195068359375 249.077117919921875 252.0972137451171875 254.140533447265625 254.3698577880859375 254.1488037109375 252.5895538330078125 250.78265380859375 245.9612579345703125 239.1343841552734375 234.1564788818359375 231.572967529296875 230.63922119140625 225.8210906982421875 228.3242034912109375 229.705474853515625 233.89306640625 237.70953369140625 239.779327392578125 241.2064971923828125 242.380462646484375 243.1146697998046875 244.3789520263671875 245.8472900390625 245.5460968017578125 245.656951904296875 247.0853118896484375 248.3540802001953125 252.391693115234375 257.333831787109375 261.593719482421875 265.9873046875 268.436737060546875 271.3262939453125 274.355194091796875 277.18115234375 281.314056396484375 285.19305419921875 289.261871337890625 294.003082275390625 297.091796875 300.1944580078125 304.09765625 306.41241455078125 309.2388916015625 313.45166015625 318.473236083984375 324.167449951171875 329.9442138671875 334.66998291015625 340.3193359375 345.742279052734375 349.896484375 350.031890869140625 351.52838134765625 352.6396484375 353.05548095703125 356.8109130859375 361.89080810546875 364.7469482421875 365.25830078125 365.77001953125 366.80413818359375 367.7308349609375 368.489227294921875 369.08935546875 368.61932373046875 366.47442626953125 366.795806884765625 366.386260986328125 364.97705078125 363.19561767578125 362.322906494140625 361.878082275390625 -9999 -9999 -9999 -9999 -9999 -9999 -9999 -9999 -9999 -9999 -9999 -9999 -9999
287.3292236328125 286.3568115234375 285.991424560546875 284.67401123046875 282.093017578125 280.624847412109375 279.003387451171875 276.961822509765625 274.740570068359375 276.766876220703125 278.031463623046875 278.323486328125 277.388885498046875 276.97943115234375 276.936065673828125 276.672332763671875 276.2520751953125 274.922454833984375 274.369384765625 272.98236083984375 271.4677734375 270.0584716796875 268.48712158203125 268.36322021484375 269.34765625 269.90826416015625 270.463043212890625 270.770477294921875 270.496429443359375 270.51947021484375 271.567474365234375 271.925201416015625 271.54754638671875 271.56610107421875 273.703369140625 274.013885498046875 272.382476806640625 270.905792236328125 270.755950927734375 270.7437744140625 270.904449462890625 271.504638671875 271.301025390625 269.125 267.62188720703125 267.00213623046875 266.957916259765625 266.23956298828125 263.445343017578125 261.524688720703125 260.632049560546875 259.836273193359375 258.243194580078125 258.02398681640625 256.5439453125 254.9459075927734375 256.23162841796875 256.06890869140625 256.463714599609375 257.682586669921875 257.182769775390625 257.37298583984375 257.54339599609375 254.27008056640625 253.972686767578125 253.5065460205078125 253.080230712890625 252.9386749267578125 252.98846435546875 251.847503662109375 255.9468231201171875 259.315582275390625 259.757476806640625 260.5087890625 260.994842529296875 259.52410888671875 257.67333984375 257.01214599609375 259.028472900390625 262.632171630859375 263.12725830078125 263.503875732421875 264.1357421875 265.2518310546875 263.759796142578125 263.018402099609375 261.400787353515625 260.0814208984375 259.431182861328125 257.48748779296875 253.452117919921875 250.5685882568359375 248.4980621337890625 247.108856201171875 244.904510498046875 244.971832275390625 244.807342529296875 244.6576690673828125 243.306640625 242.8394622802734375 242.8610076904296875 243.2302703857421875 244.0590667724609375 244.6017303466796875 245.5179595947265625 245.3826751708984375 245.776702880859375 246.5227203369140625 244.8704833984375 244.95721435546875 246.149932861328125 247.201507568359375 247.792144775390625 246.6058349609375 244.9588775634765625 245.3659515380859375 246.8164825439453125 247.1456451416015625 247.35784912109375 246.9309844970703125 246.752410888671875 247.58428955078125 246.8262786865234375 240.4763031005859375 237.6619415283203125 240.2017974853515625 240.9363250732421875 242.2718353271484375 245.3878173828125 247.850006103515625 250.0305328369140625 253.9998779296875 254.454376220703125 253.747528076171875 252.916290283203125 252.120941162109375 249.100250244140625 242.87060546875 236.9606781005859375 231.3749542236328125 227.9796600341796875 225.8210601806640625 232.0446319580078125 232.5878143310546875 234.1269073486328125 235.5814361572265625 238.0653839111328125 238.91851806640625 240.1018218994140625 241.556671142578125 242.935882568359375 244.901092529296875 246.194091796875 245.5662994384765625 246.9728851318359375 248.2967071533203125 252.0327301025390625 255.8291015625 260.1881103515625 264.38470458984375 267.055816650390625 269.284759521484375 272.21343994140625 274.34698486328125 277.674560546875 282.483612060546875 286.865386962890625 291.595703125 294.27276611328125 297.575042724609375 301.03070068359375 302.702178955078125 306.88714599609375 311.051422119140625 315.60052490234375 321.84539794921875 327.933502197265625 332.99822998046875 337.85174560546875 343.028106689453125 349.30389404296875 350.530120849609375 350.429534912109375 352.98199462890625 352.01849365234375 353.801971435546875 358.096954345703125 362.357086181640625 363.4481201171875 364.336212158203125 365.079803466796875 365.936004638671875 366.406280517578125 367.66473388671875 368.000244140625 365.908050537109375 365.49810791015625 365.449188232421875 364.3790283203125 362.670257568359375 361.636688232421875 361.1026611328125 -9999 -9999 -9999 -9999 -9999 -9999 -9999 -9999 -9999 -9999 -9999 -9999 -9999
285.409393310546875 285.5697021484375 285.131622314453125 285.2115478515625 283.4559326171875 281.94891357421875 279.004486083984375 276.70611572265625 274.399810791015625 276.345428466796875 277.93792724609375 278.098968505859375 276.86553955078125 276.152801513671875 276.0692138671875 275.68585205078125 274.99267578125 274.07275390625 273.293243408203125 272.64508056640625 270.960693359375 269.82904052734375 269.34063720703125 268.108154296875 269.0723876953125 269.019439697265625 269.1136474609375 269.28570556640625 269.693145751953125 269.894378662109375 270.66943359375 271.629364013671875 271.365936279296875 271.2027587890625 271.960357666015625 272.58270263671875 271.6898193359375 271.533294677734375 271.010711669921875 270.889678955078125 270.766143798828125 271.64013671875 272.27935791015625 270.432586669921875 268.17724609375 268.020538330078125 266.165771484375 265.502685546875 263.49603271484375 262.807586669921875 260.730499267578125 259.539703369140625 257.375457763671875 258.20501708984375 257.232879638671875 254.771209716796875 255.481597900390625 254.1072235107421875 253.569854736328125 255.96246337890625 255.0559844970703125 255.741973876953125 257.88104248046875 257.454315185546875 256.155242919921875 253.3954925537109375 253.13134765625 252.9912567138671875 253.0341033935546875 252.990936279296875 251.84747314453125 256.264251708984375 258.398101806640625 257.286956787109375 258 258.144561767578125 256.323577880859375 255.7032623291015625 253.6278228759765625 256.05877685546875 257.9300537109375 259.915374755859375 260.496307373046875 260.755218505859375 260.583251953125 259.10821533203125 256.921478271484375 255.4542999267578125 254.0474853515625 250.9373779296875 247.569000244140625 245.86737060546875 244.1212310791015625 243.4435272216796875 242.2225189208984375 243.3397064208984375 243.3704681396484375 243.0802001953125 241.93853759765625 241.890655517578125 242.1302947998046875 242.5637969970703125 243.52398681640625 244.4879302978515625 244.303466796875 244.981781005859375 244.2697296142578125 243.7220001220703125 243.46728515625 244.4101409912109375 244.8776397705078125 244.6538543701171875 245.076263427734375 246.154571533203125 246.576019287109375 242.9164581298828125 247.84918212890625 249.7130889892578125 249.697052001953125 249.01995849609375 247.3875579833984375 249.0863800048828125 248.962005615234375 243.247711181640625 241.150787353515625 237.6619110107421875 245.2786865234375 241.8744049072265625 241.7919769287109375 246.1012725830078125 248.980804443359375 252.78857421875 253.6976165771484375 253.5819549560546875 253.1161346435546875 252.528717041015625 252.4292755126953125 248.6735687255859375 243.807586669921875 235.232452392578125 225.8210296630859375 229.5792999267578125 233.4727783203125 232.7140045166015625 232.7449493408203125 235.474761962890625 238.0171966552734375 238.4603271484375 238.987030029296875 240.916900634765625 242.06842041015625 242.8408050537109375 245.0214691162109375 245.4176788330078125 246.1698760986328125 247.40814208984375 250.48504638671875 254.3183441162109375 258.648193359375 262.244720458984375 264.943511962890625 267.720489501953125 270.427032470703125 272.410552978515625 274.857940673828125 279.118896484375 283.721282958984375 288.435699462890625 290.922637939453125 293.769775390625 298.1937255859375 299.043548583984375 304.331787109375 309.496337890625 313.234954833984375 319.8419189453125 325.905853271484375 331.3206787109375 336.150909423828125 341.19744873046875 347.25457763671875 350.250701904296875 349.0438232421875 352.0155029296875 352.076385498046875 351.8673095703125 355.365631103515625 358.828887939453125 361.504425048828125 362.88055419921875 363.530975341796875 364.066558837890625 364.305389404296875 365.679840087890625 366.316986083984375 365.583099365234375 364.987823486328125 364.182586669921875 363.300689697265625 361.608642578125 360.12750244140625 359.99005126953125 359.103668212890625 358.1273193359375 357.219818115234375 -9999 -9999 -9999 -9999 -9999 -9999 -9999 -9999 -9999 -9999
283.9207763671875 284.196044921875 284.61676025390625 284.752685546875 282.819549560546875 282.050567626953125 279.55517578125 276.707977294921875 274.2010498046875 275.58294677734375 277.445770263671875 278.142303466796875 276.595458984375 275.672943115234375 275.295623779296875 274.881927490234375 274.586273193359375 274.326934814453125 273.098785400390625 272.52484130859375 270.999664306640625 269.88427734375 269.38818359375 267.799224853515625 268.62420654296875 268.68475341796875 268.77655029296875 268.848968505859375 269.103668212890625 269.46771240234375 270.44158935546875 272.79095458984375 273.454193115234375 271.601837158203125 271.151763916015625 270.954620361328125 270.59954833984375 271.012359619140625 271.548370361328125 272.12091064453125 271.69378662109375 271.830047607421875 271.6434326171875 271.670867919921875 269.534912109375 266.365325927734375 265.409210205078125 264.339141845703125 263.33367919921875 261.9793701171875 260.703887939453125 259.208740234375 258.025909423828125 255.713409423828125 254.959075927734375 253.6788482666015625 251.5110015869140625 252.23956298828125 252.2528533935546875 254.1337432861328125 255.3628082275390625 255.90576171875 254.7873687744140625 254.7873382568359375 256.34100341796875 253.6050872802734375 253.1878662109375 253.079071044921875 253.065032958984375 252.9673004150390625 251.589752197265625 251.4727935791015625 253.554656982421875 254.3166961669921875 254.9552001953125 253.9267578125 253.034027099609375 252.746612548828125 251.4600067138671875 251.0059814453125 253.3588409423828125 255.094329833984375 254.3981475830078125 254.9248809814453125 255.7705230712890625 254.59637451171875 252.79742431640625 251.5557708740234375 250.1333770751953125 247.4944915771484375 245.4653167724609375 243.07708740234375 242.1691741943359375 241.9552154541015625 240.9642333984375 240.717742919921875 240.264495849609375 239.9556884765625 239.955657958984375 239.95562744140625 239.955596923828125 239.95556640625 239.955535888671875 239.9555206298828125 242.773040771484375 242.5601806640625 243.3961029052734375 242.9443206787109375 242.60931396484375 242.0178680419921875 241.8418426513671875 241.92486572265625 243.0758209228515625 243.4219512939453125 243.8240814208984375 244.059326171875 242.9164276123046875 244.358489990234375 244.70526123046875 243.9430694580078125 244.7475738525390625 245.1143341064453125 246.416473388671875 247.004669189453125 247.877471923828125 246.7026214599609375 237.6618804931640625 238.343597412109375 238.7017059326171875 241.6112060546875 245.690093994140625 249.989654541015625 253.2686920166015625 253.6023712158203125 253.021636962890625 252.611358642578125 252.9920654296875 251.8077392578125 249.762298583984375 240.5908203125 225.8209991455078125 227.3570404052734375 231.094635009765625 232.3079071044921875 233.5029144287109375 237.38775634765625 238.6226806640625 239.2645721435546875 239.241058349609375 241.3258056640625 241.349609375 241.653228759765625 242.059417724609375 244.5428466796875 246.626708984375 246.952880859375 248.660888671875 253.19989013671875 256.745819091796875 259.98492431640625 262.70458984375 265.64398193359375 268.373138427734375 270.387725830078125 272.484832763671875 276.60223388671875 280.356964111328125 284.426849365234375 287.43292236328125 289.733245849609375 293.677337646484375 295.48590087890625 301.4215087890625 307.22540283203125 311.9927978515625 318.053253173828125 323.953826904296875 329.86236572265625 334.745269775390625 339.343231201171875 345.453094482421875 348.9273681640625 347.83270263671875 350.827667236328125 351.286102294921875 350.4056396484375 353.056976318359375 356.129302978515625 359.223114013671875 360.64178466796875 361.937042236328125 362.4302978515625 362.5233154296875 363.2969970703125 364.17315673828125 365.00665283203125 363.938720703125 362.811492919921875 361.86578369140625 360.630401611328125 359.462158203125 358.662139892578125 358.035888671875 357.365081787109375 356.1688232421875 355.685028076171875 -9999 -9999 -9999 -9999 -9999 -9999 -9999 -9999 -9999
283.06671142578125 283.31561279296875 284.92523193359375 283.62286376953125 281.958740234375 282.0167236328125 280.39251708984375 277.02447509765625 274.191192626953125 274.70135498046875 275.16107177734375 276.6678466796875 276.056549072265625 275.289947509765625 275.209503173828125 275.168670654296875 274.55560302734375 273.794708251953125 273.096893310546875 272.58990478515625 271.183746337890625 270.03729248046875 269.491790771484375 268.97125244140625 267.389007568359375 267.130950927734375 268.465362548828125 268.57037353515625 268.654388427734375 268.93450927734375 269.7066650390625 272.197052001953125 273.996307373046875 271.3746337890625 270.353240966796875 270.200347900390625 270.60357666015625 271.36962890625 272.438995361328125 272.957733154296875 272.860565185546875 272.088165283203125 272.073211669921875 271.164306640625 270.50390625 268.356689453125 266.849151611328125 266.226226806640625 264.334503173828125 262.830413818359375 261.718719482421875 260.627197265625 258.745361328125 256.899993896484375 255.224212646484375 254.22955322265625 251.64849853515625 251.0302886962890625 250.783660888671875 251.339019775390625 256.396697998046875 256.895782470703125 255.25518798828125 254.7873077392578125 255.23944091796875 254.4640045166015625 253.7302398681640625 253.53009033203125 253.4879150390625 253.1198272705078125 252.6475372314453125 251.280120849609375 250.842010498046875 250.3962249755859375 249.9204864501953125 250.847259521484375 251.9523468017578125 252.0695953369140625 251.7395477294921875 249.891510009765625 250.7613525390625 251.8001251220703125 250.726409912109375 249.656890869140625 250.6849517822265625 251.237091064453125 249.95892333984375 247.2173919677734375 247.004913330078125 245.0379791259765625 242.15789794921875 241.099761962890625 241.0005340576171875 240.927154541015625 240.8780364990234375 240.3621826171875 240.7795257568359375 240.5383148193359375 240.724761962890625 240.809295654296875 240.8137359619140625 240.83392333984375 240.8364410400390625 240.3187103271484375 239.9554901123046875 239.9554595947265625 239.925689697265625 239.807952880859375 239.5496978759765625 239.296112060546875 239.29608154296875 240.1977081298828125 241.0367889404296875 241.856719970703125 241.8403778076171875 241.5393218994140625 240.2685699462890625 241.7193145751953125 242.632354736328125 242.959747314453125 243.0312957763671875 242.094268798828125 240.30596923828125 241.05059814453125 243.316314697265625 241.5568084716796875 239.80828857421875 237.1590423583984375 236.4563140869140625 236.865509033203125 240.1588287353515625 246.1848297119140625 252.7398529052734375 253.5624542236328125 252.639556884765625 252.358306884765625 251.8881988525390625 250.8145904541015625 250.7643280029296875 244.34405517578125 231.0844879150390625 225.569122314453125 228.4282073974609375 232.553131103515625 234.1986083984375 233.7085418701171875 232.9068450927734375 234.3742523193359375 237.477447509765625 240.658203125 240.8775634765625 240.9500579833984375 240.98065185546875 241.708740234375 244.5374755859375 245.62646484375 247.4203643798828125 251.1730804443359375 254.77288818359375 258.2586669921875 260.599212646484375 263.147674560546875 265.99591064453125 268.43389892578125 270.41082763671875 274.195159912109375 277.659637451171875 280.523956298828125 283.372955322265625 285.273651123046875 288.94964599609375 292.647796630859375 298.383514404296875 303.540191650390625 309.13604736328125 315.088470458984375 320.876007080078125 327.4398193359375 333.52325439453125 338.27520751953125 344.225555419921875 347.06268310546875 346.545867919921875 348.698211669921875 349.569061279296875 349.28460693359375 351.700439453125 354.774749755859375 357.502838134765625 358.488311767578125 359.776519775390625 360.340789794921875 361.1446533203125 361.54931640625 362.6580810546875 363.747528076171875 362.500762939453125 361.45501708984375 361.025054931640625 361.002532958984375 360.506866455078125 358.30450439453125 357.4617919921875 356.827178955078125 355.475677490234375 353.58782958984375 352.77264404296875 350.578033447265625 -9999 345.818603515625 342.641693115234375 339.387847900390625 -9999 -9999 -9999
282.353424072265625 282.264923095703125 283.626983642578125 281.794342041015625 281.693359375 282.900604248046875 280.912689208984375 278.05364990234375 274.373291015625 273.482574462890625 274.27734375 275.01715087890625 275.589019775390625 275.11883544921875 275.11639404296875 274.821136474609375 273.98724365234375 273.341522216796875 272.90771484375 272.3316650390625 271.892608642578125 270.9520263671875 269.96099853515625 269.015655517578125 268.628875732421875 266.97930908203125 266.99468994140625 268.259613037109375 268.28753662109375 268.38128662109375 268.598236083984375 269.515380859375 270.85882568359375 270.305816650390625 270.137603759765625 270.385894775390625 270.91107177734375 271.256683349609375 271.83984375 272.570098876953125 272.61480712890625 272.035614013671875 271.575103759765625 271.3248291015625 271.164306640625 270.1983642578125 268.280609130859375 267.504425048828125 266.716278076171875 265.102264404296875 263.567108154296875 262.4732666015625 261.15631103515625 258.549713134765625 256.8238525390625 254.55877685546875 253.0746002197265625 252.7546844482421875 252.3499603271484375 249.696868896484375 251.304290771484375 252.7556610107421875 253.9342803955078125 254.5750885009765625 254.9142303466796875 254.2753143310546875 252.8961181640625 250.4383697509765625 250.5679779052734375 249.945709228515625 249.967071533203125 250.0785675048828125 250.494476318359375 250.5565643310546875 250.1282806396484375 246.43682861328125 249.71002197265625 252.909515380859375 253.4398193359375 249.8914794921875 251.3766937255859375 251.434661865234375 250.787506103515625 250.270477294921875 249.624359130859375 245.7276153564453125 242.771942138671875 241.980682373046875 241.695709228515625 241.29351806640625 240.96240234375 240.7877655029296875 240.7102203369140625 240.7102508544921875 240.362213134765625 240.7191009521484375 240.735870361328125 240.5383453369140625 240.730255126953125 240.78973388671875 240.982452392578125 240.8137664794921875 240.959503173828125 244.39801025390625 244.3406524658203125 242.762420654296875 242.335845947265625 241.8603363037109375 240.48712158203125 242.4152069091796875 241.2331695556640625 239.296051025390625 238.7461090087890625 240.07855224609375 240.6235504150390625 240.7543487548828125 239.326202392578125 240.3690032958984375 240.81842041015625 242.0090179443359375 241.0129852294921875 239.694000244140625 238.99560546875 239.173004150390625 239.575286865234375 238.42608642578125 237.265289306640625 236.23919677734375 235.6187286376953125 235.4318084716796875 237.6220855712890625 242.2408599853515625 248.6499176025390625 251.8883514404296875 251.374755859375 250.377105712890625 249.9342803955078125 249.9342498779296875 250.1721038818359375 243.73651123046875 232.6546478271484375 226.9182586669921875 225.569091796875 228.8020782470703125 229.6674041748046875 230.4577789306640625 231.159332275390625 231.6066436767578125 233.513092041015625 238.771697998046875 239.691375732421875 239.728973388671875 240.0952301025390625 240.4616851806640625 241.327667236328125 243.301300048828125 245.968902587890625 249.269439697265625 252.3658447265625 255.8009185791015625 258.389404296875 260.465484619140625 263.22955322265625 265.61077880859375 267.949554443359375 271.38592529296875 275.054412841796875 278.017059326171875 280.668487548828125 282.430877685546875 285.34698486328125 290.031829833984375 296.0755615234375 300.863037109375 305.99810791015625 312.574371337890625 317.797393798828125 324.60260009765625 331.634796142578125 337.289642333984375 342.293975830078125 345.01702880859375 344.130706787109375 346.56524658203125 347.413909912109375 348.22454833984375 351.358856201171875 354.152618408203125 356.135650634765625 356.55828857421875 357.7286376953125 358.591033935546875 359.519927978515625 360.5096435546875 361.6041259765625 361.82879638671875 361.414154052734375 361.354644775390625 361.32379150390625 361.40118408203125 360.702667236328125 358.9482421875 357.250732421875 355.779144287109375 354.02728271484375 352.553863525390625 351.90869140625 349.863006591796875 347.822418212890625 345.784454345703125 343.606201171875 339.795074462890625 -9999 -9999 -9999
281.626220703125 280.955841064453125 281.259765625 280.6605224609375 281.23736572265625 282.405975341796875 280.626373291015625 278.882232666015625 276.442901611328125 273.356903076171875 272.92242431640625 273.65814208984375 274.4483642578125 275.119598388671875 274.7633056640625 273.670623779296875 273.084197998046875 273.011566162109375 273.3795166015625 272.69329833984375 272.48504638671875 271.897308349609375 270.777130126953125 269.17730712890625 268.731353759765625 268.173553466796875 266.5948486328125 267.882965087890625 267.941802978515625 267.879974365234375 267.892822265625 268.116424560546875 268.87811279296875 269.32843017578125 270.966888427734375 272.001556396484375 271.517181396484375 271.84930419921875 272.835906982421875 272.90643310546875 272.9945068359375 272.67047119140625 272.347015380859375 272.54681396484375 271.76409912109375 270.23724365234375 268.95941162109375 268.051422119140625 266.976837158203125 265.6148681640625 264.560211181640625 263.589874267578125 263.142120361328125 260.76849365234375 259.8809814453125 258.420654296875 256.22235107421875 254.91259765625 252.239044189453125 248.5410308837890625 250.8754119873046875 251.889129638671875 252.606689453125 252.8689117431640625 253.336517333984375 251.5252838134765625 251.000701904296875 249.718780517578125 249.552825927734375 248.747406005859375 248.668243408203125 248.2673797607421875 247.94390869140625 248.0622100830078125 248.561614990234375 248.44439697265625 246.436798095703125 248.83233642578125 248.4369964599609375 243.3516693115234375 247.4400787353515625 247.5777587890625 246.186737060546875 245.7299041748046875 243.5930023193359375 242.497344970703125 242.033935546875 241.650634765625 241.3617706298828125 241.08856201171875 240.889495849609375 240.821258544921875 240.7346343994140625 240.36224365234375 240.7253570556640625 240.723236083984375 240.7069549560546875 240.5383758544921875 240.5384063720703125 241.13916015625 241.99853515625 242.979522705078125 245.8661346435546875 245.8748779296875 246.659698486328125 246.3323822021484375 245.8485107421875 245.957183837890625 246.085205078125 245.865020751953125 246.34619140625 244.01214599609375 241.664154052734375 238.7460784912109375 238.7460479736328125 240.0432586669921875 238.3108062744140625 238.654449462890625 238.4390106201171875 239.2939605712890625 239.3478546142578125 238.694549560546875 238.311309814453125 237.7018890380859375 238.007415771484375 237.7844696044921875 235.7798614501953125 235.2650146484375 235.037445068359375 234.8226470947265625 236.67120361328125 239.8447265625 243.1624755859375 248.0960845947265625 250.565399169921875 251.7190704345703125 251.2362823486328125 251.2374114990234375 249.3121337890625 240.931732177734375 231.2298736572265625 227.3144683837890625 225.2006988525390625 226.027984619140625 228.0541534423828125 228.497314453125 228.764923095703125 230.6101226806640625 231.2877960205078125 234.950347900390625 238.277069091796875 238.6962738037109375 238.706390380859375 239.0849609375 239.690399169921875 241.9680023193359375 244.0955352783203125 246.849273681640625 249.652374267578125 252.5194091796875 254.7510528564453125 257.2039794921875 260.034088134765625 262.2437744140625 265.259033203125 269.533843994140625 273.13836669921875 276.222564697265625 278.6297607421875 280.363372802734375 282.439666748046875 286.84967041015625 293.062591552734375 298.701568603515625 303.675537109375 309.143768310546875 315.025054931640625 322.51416015625 330.36151123046875 335.59112548828125 340.48834228515625 342.4676513671875 341.9901123046875 343.67193603515625 345.15899658203125 347.522216796875 350.736175537109375 353.7109375 354.285888671875 354.693389892578125 356.113800048828125 357.09149169921875 357.86163330078125 360.02642822265625 360.18182373046875 360.2020263671875 360.37261962890625 360.957244873046875 360.977935791015625 360.012481689453125 359.567291259765625 359.127288818359375 357.1190185546875 353.739593505859375 352.493896484375 351.677337646484375 350.450439453125 348.51470947265625 347.047119140625 345.667266845703125 343.689178466796875 340.365936279296875 337.451934814453125 -9999 -9999
279.907501220703125 279.362945556640625 279.0797119140625 279.718994140625 280.302276611328125 280.79400634765625 279.096282958984375 279.038055419921875 276.94384765625 274.554840087890625 272.58148193359375 272.8111572265625 273.46051025390625 274.347808837890625 274.282562255859375 273.10626220703125 272.927001953125 272.898284912109375 272.86077880859375 272.803863525390625 272.27734375 271.715240478515625 270.687103271484375 269.923980712890625 268.754119873046875 268.262603759765625 266.64227294921875 266.346405029296875 267.493255615234375 267.5587158203125 267.550689697265625 267.6226806640625 268.06585693359375 268.446044921875 270.891815185546875 272.731964111328125 271.98443603515625 272.197296142578125 273.31109619140625 274.307952880859375 274.4315185546875 273.63446044921875 273.32049560546875 273.647003173828125 272.838836669921875 271.409942626953125 269.882720947265625 268.753936767578125 267.761138916015625 266.25518798828125 265.255157470703125 264.184112548828125 263.481903076171875 261.834320068359375 261.098907470703125 260.53179931640625 258.34100341796875 256.22332763671875 253.135498046875 251.039337158203125 248.5410003662109375 249.909393310546875 251.077056884765625 251.942901611328125 252.0965728759765625 250.5228118896484375 249.7740325927734375 249.4293212890625 248.8712158203125 248.3842620849609375 248.0525970458984375 247.6904144287109375 247.2187957763671875 246.89129638671875 247.3046722412109375 247.0313568115234375 245.0257415771484375 246.618377685546875 245.1543731689453125 243.3516387939453125 244.019134521484375 243.780059814453125 243.4517669677734375 244.059478759765625 242.682342529296875 242.27227783203125 241.8715362548828125 241.5755615234375 241.1719970703125 240.9161376953125 240.805908203125 240.730255126953125 240.7168426513671875 240.362274169921875 240.7184906005859375 240.73004150390625 241.1300201416015625 242.553955078125 245.5365753173828125 246.6763763427734375 247.576629638671875 248.964324951171875 249.210968017578125 247.477142333984375 248.441619873046875 249.9217376708984375 250.133270263671875 250.2330169677734375 250.512176513671875 249.966217041015625 248.9774932861328125 247.8189239501953125 245.5491180419921875 242.6856689453125 239.234649658203125 237.8653411865234375 236.624603271484375 235.91375732421875 237.266998291015625 238.05303955078125 238.80596923828125 238.481536865234375 238.493804931640625 238.181243896484375 237.2010650634765625 236.5339202880859375 235.68450927734375 235.51318359375 233.755340576171875 235.190582275390625 236.7248992919921875 240.6156768798828125 243.219635009765625 249.42230224609375 252.1233062744140625 252.442230224609375 251.9242706298828125 250.847808837890625 248.6600799560546875 241.03167724609375 232.7831573486328125 228.8573150634765625 227.10491943359375 224.932281494140625 227.420806884765625 228.091217041015625 228.4637603759765625 229.1274871826171875 230.3434906005859375 231.226715087890625 234.970703125 238.225677490234375 238.1286773681640625 238.076416015625 238.4652557373046875 239.94696044921875 242.184051513671875 243.5987396240234375 246.2856292724609375 249.4074249267578125 251.47259521484375 254.034027099609375 256.954071044921875 259.8494873046875 263.826324462890625 267.522735595703125 271.01129150390625 274.351287841796875 277.017486572265625 279.218017578125 281.180145263671875 284.261474609375 289.781982421875 295.855621337890625 300.8863525390625 305.744415283203125 310.447265625 319.64971923828125 329.14508056640625 333.49163818359375 338.506744384765625 340.39306640625 340.335296630859375 342.05279541015625 343.70947265625 346.25506591796875 349.694580078125 352.27880859375 353.180877685546875 353.63116455078125 354.91326904296875 355.81976318359375 356.50640869140625 358.257171630859375 358.596588134765625 359.283203125 358.8804931640625 360.191162109375 360.1502685546875 358.257598876953125 357.95465087890625 357.46728515625 354.902191162109375 352.2845458984375 351.397491455078125 350.491973876953125 348.19818115234375 346.613983154296875 346.168487548828125 345.142578125 343.485198974609375 340.455780029296875 336.709014892578125 334.3419189453125 -9999
280.683258056640625 280.1435546875 279.57470703125 278.027740478515625 279.25274658203125 279.598358154296875 277.919036865234375 278.27081298828125 276.435333251953125 274.337982177734375 273.37005615234375 271.154754638671875 273.03448486328125 274.11614990234375 273.958770751953125 272.65802001953125 272.356048583984375 272.63140869140625 272.361724853515625 272.814544677734375 272.26080322265625 272.002716064453125 271.656707763671875 271.31024169921875 270.010528564453125 268.343109130859375 267.8199462890625 267.314605712890625 265.94293212890625 267.2406005859375 267.362884521484375 267.439178466796875 267.654266357421875 267.950775146484375 269.17620849609375 270.978851318359375 271.979888916015625 272.348541259765625 273.451019287109375 275.333251953125 275.768646240234375 275.16748046875 274.508575439453125 273.816680908203125 272.72808837890625 271.44927978515625 269.871063232421875 268.305389404296875 267.338409423828125 265.881072998046875 265.804290771484375 265.45379638671875 264.518951416015625 263.01702880859375 261.90869140625 260.97698974609375 259.91741943359375 257.705780029296875 254.7751007080078125 252.09771728515625 250.210540771484375 247.9981536865234375 249.4915008544921875 249.6905517578125 249.4980621337890625 248.916900634765625 248.83428955078125 248.756988525390625 248.53350830078125 248.080780029296875 247.4638519287109375 247.0517425537109375 246.4567108154296875 245.698974609375 245.367340087890625 244.8067169189453125 243.3856658935546875 245.1103668212890625 245.01629638671875 244.189300537109375 242.4561920166015625 242.0690155029296875 242.9274139404296875 243.6599884033203125 242.498779296875 241.9219818115234375 241.6683502197265625 241.3399658203125 241.0242156982421875 241.0350341796875 240.9574432373046875 240.8138427734375 240.7743072509765625 240.3623046875 240.67193603515625 240.671966552734375 241.3538055419921875 245.4796142578125 247.3489837646484375 249.35498046875 252.224212646484375 252.6643524169921875 252.093994140625 251.2711639404296875 253.310882568359375 253.821441650390625 254.7329864501953125 254.3740997314453125 254.1190185546875 253.4392242431640625 252.1759185791015625 251.5197296142578125 248.847869873046875 245.7526092529296875 243.3463134765625 241.22589111328125 239.232025146484375 236.386383056640625 235.36029052734375 234.95452880859375 236.9961090087890625 237.5724945068359375 238.1725616455078125 237.870819091796875 237.3612060546875 235.89141845703125 235.7685394287109375 235.6217193603515625 233.6082305908203125 235.4726104736328125 236.3079986572265625 239.598724365234375 245.832611083984375 250.9075469970703125 251.2307891845703125 251.28515625 251.0941314697265625 249.838409423828125 245.2252197265625 240.7483978271484375 235.4829864501953125 228.4921417236328125 227.249481201171875 224.330718994140625 226.6251983642578125 227.417999267578125 228.1013641357421875 228.2964019775390625 229.2624664306640625 230.067596435546875 232.6547088623046875 236.984283447265625 237.089385986328125 236.84124755859375 237.5171051025390625 237.758026123046875 238.9513092041015625 240.85345458984375 244.157196044921875 246.9835662841796875 249.27374267578125 251.6071014404296875 254.64166259765625 257.91217041015625 261.79449462890625 265.2628173828125 268.872894287109375 272.585205078125 275.623138427734375 277.76092529296875 280.149871826171875 282.582489013671875 286.546417236328125 292.9061279296875 297.77252197265625 302.922088623046875 307.80169677734375 317.53558349609375 327.47509765625 331.79730224609375 335.94525146484375 337.3658447265625 338.1746826171875 340.566802978515625 343.16375732421875 345.39447021484375 348.134552001953125 350.805511474609375 352.9041748046875 353.116058349609375 354.000396728515625 355.301361083984375 355.214385986328125 356.0753173828125 357.038818359375 357.602752685546875 357.98406982421875 358.02081298828125 357.837249755859375 356.815765380859375 355.868011474609375 354.0145263671875 353.03759765625 351.861175537109375 350.19207763671875 348.309326171875 346.750518798828125 345.242950439453125 345.38818359375 344.737823486328125 343.476531982421875 340.843597412109375 336.765625 333.54217529296875 -9999
280.20379638671875 279.8167724609375 279.510345458984375 277.97381591796875 277.523895263671875 278.8963623046875 277.99200439453125 276.8365478515625 276.06060791015625 274.404388427734375 273.372314453125 270.984039306640625 272.56341552734375 274.06475830078125 273.93804931640625 272.570648193359375 271.96246337890625 271.651885986328125 272.0262451171875 272.969451904296875 272.32562255859375 272.00848388671875 272.0137939453125 271.190521240234375 269.623809814453125 268.222625732421875 267.715423583984375 267.237640380859375 265.71258544921875 266.88934326171875 267.37713623046875 267.2017822265625 267.336334228515625 267.521636962890625 268.63177490234375 270.074554443359375 271.535430908203125 272.757049560546875 273.841461181640625 276.009246826171875 276.088836669921875 275.03802490234375 273.555511474609375 272.521636962890625 271.48388671875 270.397491455078125 269.159576416015625 267.609344482421875 266.43463134765625 265.767181396484375 265.78680419921875 265.617706298828125 265.10296630859375 263.965545654296875 262.255859375 261.3895263671875 260.78497314453125 258.849334716796875 256.18304443359375 253.371246337890625 250.7917633056640625 248.12451171875 247.1405181884765625 246.5486602783203125 247.633331298828125 248.01507568359375 248.5764312744140625 248.529754638671875 248.1779022216796875 247.6794891357421875 246.8211669921875 246.14984130859375 245.456817626953125 245.03399658203125 244.40338134765625 243.7196807861328125 242.4693756103515625 243.3718414306640625 244.4393463134765625 244.304779052734375 242.88079833984375 241.6454620361328125 242.67529296875 242.952880859375 242.145538330078125 241.636749267578125 241.4454803466796875 241.17840576171875 241.0610198974609375 241.32452392578125 240.362396240234375 240.36236572265625 240.362335205078125 240.863128662109375 243.459808349609375 244.18695068359375 245.1895751953125 247.30670166015625 248.7982635498046875 250.46551513671875 253.1113128662109375 254.2311553955078125 254.17059326171875 254.8402099609375 256.34759521484375 255.7998504638671875 255.719970703125 255.29229736328125 255.0585784912109375 254.7267303466796875 254.03631591796875 253.241424560546875 251.5769500732421875 248.639862060546875 245.6942901611328125 242.9665679931640625 240.5249481201171875 239.5872802734375 238.2401123046875 235.2977294921875 234.619140625 236.2236328125 237.0848541259765625 236.921356201171875 236.9824676513671875 235.9181976318359375 235.5395355224609375 235.4711761474609375 233.6082000732421875 235.474884033203125 236.0149688720703125 239.3955078125 247.1776275634765625 250.6704559326171875 250.7567901611328125 250.9351806640625 250.117889404296875 245.8522186279296875 241.0361328125 239.0357666015625 238.20367431640625 232.1609344482421875 227.5960693359375 225.3863525390625 224.2509765625 226.6080322265625 227.544708251953125 228.379638671875 228.9680938720703125 229.28265380859375 232.2546844482421875 235.0670623779296875 234.4567108154296875 235.657745361328125 236.5820465087890625 236.5051116943359375 236.98626708984375 239.008087158203125 242.5289764404296875 246.406768798828125 248.7989959716796875 250.8621063232421875 253.3208160400390625 256.677276611328125 259.87689208984375 262.673126220703125 266.294708251953125 270.7822265625 273.986114501953125 276.15093994140625 278.2685546875 281.649078369140625 284.650848388671875 289.0062255859375 294.86798095703125 299.8021240234375 304.85833740234375 314.7796630859375 324.86871337890625 329.93878173828125 331.653594970703125 332.399078369140625 335.592132568359375 338.75634765625 342.33392333984375 344.92425537109375 347.418243408203125 350.34722900390625 352.2379150390625 352.48797607421875 352.7159423828125 353.64959716796875 353.7147216796875 354.37384033203125 355.324066162109375 355.702850341796875 355.5634765625 355.039825439453125 353.955322265625 353.693145751953125 352.469085693359375 351.665985107421875 351.72833251953125 350.96820068359375 348.986663818359375 346.592681884765625 345.25897216796875 343.749114990234375 343.82647705078125 344.498443603515625 343.173980712890625 340.79412841796875 337.125732421875 333.20269775390625 331.739288330078125
279.97198486328125 279.4244384765625 279.1646728515625 278.632659912109375 277.170623779296875 277.90789794921875 277.85736083984375 276.427642822265625 275.864593505859375 274.833099365234375 273.488616943359375 272.250152587890625 270.54376220703125 273.543365478515625 274.347412109375 272.730926513671875 271.3702392578125 271.138397216796875 271.2891845703125 272.8092041015625 272.722412109375 271.782989501953125 271.63067626953125 270.5882568359375 268.851654052734375 268.031646728515625 267.5338134765625 267.077911376953125 266.609649658203125 265.18994140625 266.828521728515625 266.814361572265625 266.956573486328125 267.24444580078125 268.488189697265625 270.024627685546875 270.673583984375 271.00885009765625 272.44354248046875 274.586700439453125 274.679473876953125 273.364532470703125 271.806427001953125 270.36962890625 269.732391357421875 269.02813720703125 268.2733154296875 267.01873779296875 266.047515869140625 265.642059326171875 265.613494873046875 264.950164794921875 264.3302001953125 263.63055419921875 262.331573486328125 261.003204345703125 260.226226806640625 259.296600341796875 257.055572509765625 254.0908203125 251.5836334228515625 249.8648223876953125 248.75933837890625 246.09814453125 245.2291259765625 247.4687957763671875 247.964080810546875 248.1428070068359375 247.6269073486328125 246.890228271484375 245.95135498046875 245.138092041015625 244.4619903564453125 244.189544677734375 243.7523193359375 243.1610565185546875 241.444061279296875 242.4370574951171875 242.669769287109375 242.53521728515625 241.9991912841796875 241.1299285888671875 242.1983795166015625 242.2257232666015625 241.7165374755859375 241.4068145751953125 241.2235565185546875 241.1898956298828125 240.3624420166015625 240.3624114990234375 241.9813079833984375 242.1460723876953125 242.5748291015625 244.0451812744140625 245.3539581298828125 246.0140533447265625 246.2874755859375 248.044189453125 250.203277587890625 252.6706390380859375 255.4116363525390625 256.794952392578125 256.82061767578125 257.6773681640625 258.619842529296875 258.477874755859375 257.7923583984375 257.633392333984375 258.1385498046875 258.185333251953125 257.35650634765625 256.257171630859375 254.8871612548828125 252.5343017578125 248.7314605712890625 245.6900482177734375 243.2429962158203125 241.7323455810546875 239.870574951171875 237.6525726318359375 235.079742431640625 234.319366455078125 235.909088134765625 236.0977020263671875 236.5729827880859375 235.5563201904296875 234.5546875 234.1234588623046875 233.6081695556640625 235.4137725830078125 236.3631439208984375 241.0851287841796875 248.2642059326171875 251.1500244140625 250.3279571533203125 250.027435302734375 246.539764404296875 241.3006134033203125 239.4879608154296875 238.6529998779296875 237.5675201416015625 235.1959991455078125 232.33953857421875 228.92120361328125 225.0894317626953125 223.877777099609375 226.4773406982421875 229.7798614501953125 230.0192718505859375 229.4317626953125 230.85491943359375 232.7342681884765625 234.7901763916015625 235.3085784912109375 235.599700927734375 233.8124847412109375 232.927490234375 237.1811676025390625 240.7313690185546875 245.5363006591796875 248.199676513671875 249.7848052978515625 252.2959136962890625 255.6536865234375 258.535919189453125 262.059173583984375 265.271087646484375 268.34503173828125 271.9560546875 274.74810791015625 276.924285888671875 280.3887939453125 283.34954833984375 286.48736572265625 291.692535400390625 296.507781982421875 301.297943115234375 312.5986328125 322.02581787109375 325.52191162109375 326.945953369140625 330.040802001953125 334.3079833984375 337.83978271484375 340.894134521484375 344.09344482421875 346.82415771484375 349.757110595703125 351.534759521484375 351.16339111328125 350.8306884765625 351.385589599609375 352.803253173828125 354.427093505859375 355.098602294921875 353.54644775390625 352.552886962890625 351.45098876953125 350.809600830078125 350.8248291015625 350.135467529296875 350.143585205078125 350.2310791015625 349.91351318359375 347.709381103515625 345.313690185546875 343.844757080078125 342.588104248046875 341.9151611328125 343.125030517578125 342.293212890625 339.896331787109375 336.914031982421875 333.48223876953125 330.657745361328125
279.98944091796875 278.99786376953125 278.761077880859375 278.40057373046875 277.86669921875 276.317901611328125 277.34381103515625 276.61773681640625 275.362823486328125 275.188629150390625 274.1026611328125 272.776031494140625 270.032257080078125 272.50335693359375 274.071319580078125 272.6082763671875 270.987518310546875 270.996917724609375 270.97601318359375 271.758941650390625 272.67486572265625 271.53875732421875 271.01141357421875 269.94256591796875 268.669647216796875 267.969268798828125 267.372955322265625 266.95977783203125 266.581268310546875 264.765289306640625 265.74432373046875 266.256072998046875 266.5582275390625 266.870697021484375 268.30596923828125 269.586090087890625 269.768402099609375 269.70184326171875 270.606964111328125 272.20892333984375 273.0240478515625 271.88433837890625 270.407440185546875 268.861907958984375 268.155242919921875 267.466705322265625 266.843353271484375 266.0594482421875 265.389404296875 264.8330078125 264.298797607421875 263.700225830078125 263.089752197265625 262.20953369140625 261.103729248046875 260.062957763671875 259.098968505859375 258.39862060546875 256.74517822265625 254.3943939208984375 251.9626312255859375 249.7589263916015625 248.1660614013671875 247.0568389892578125 244.4114837646484375 245.9076385498046875 246.23626708984375 246.9884796142578125 246.5752410888671875 245.601776123046875 244.5640411376953125 243.912506103515625 243.63653564453125 243.34429931640625 243.09112548828125 242.6573333740234375 241.130279541015625 241.0093536376953125 240.908599853515625 240.853485107421875 240.7751617431640625 240.718780517578125 240.6375885009765625 240.425750732421875 240.3625640869140625 240.3625335693359375 240.3625030517578125 240.3624725341796875 242.11419677734375 242.5417633056640625 243.1543426513671875 244.7434844970703125 245.22906494140625 246.9863128662109375 248.7925872802734375 250.163604736328125 249.5877227783203125 250.9104156494140625 252.4279937744140625 256.049713134765625 259.688385009765625 260.93310546875 261.30279541015625 260.88287353515625 261.552947998046875 261.908111572265625 262.64019775390625 264.23370361328125 264.21917724609375 265.454010009765625 265.275238037109375 265.447906494140625 263.873565673828125 260.353363037109375 253.48541259765625 249.3871917724609375 247.108489990234375 244.409332275390625 242.397979736328125 239.833831787109375 238.0457305908203125 234.7848358154296875 234.0702972412109375 234.86151123046875 235.8137054443359375 235.2454986572265625 234.2154541015625 233.06768798828125 233.26611328125 234.74627685546875 236.6141510009765625 241.6862640380859375 247.7585906982421875 250.774383544921875 249.4813690185546875 247.25390625 241.9884033203125 239.4840545654296875 238.6308135986328125 237.854766845703125 235.522705078125 235.3400726318359375 235.59185791015625 232.02008056640625 228.5867462158203125 227.538116455078125 223.3264007568359375 227.9896240234375 229.59771728515625 229.3811187744140625 230.012115478515625 233.4222869873046875 234.23681640625 234.847930908203125 235.078826904296875 232.927459716796875 235.0598907470703125 236.3920440673828125 239.3530426025390625 243.9943084716796875 246.3527069091796875 248.2981414794921875 250.7570648193359375 253.963043212890625 256.953582763671875 260.206390380859375 263.13067626953125 266.549530029296875 270.795989990234375 273.421783447265625 276.233642578125 279.66375732421875 282.418548583984375 284.719085693359375 289.18389892578125 293.966949462890625 298.820892333984375 307.03857421875 316.59332275390625 320.371673583984375 324.475677490234375 328.967010498046875 333.0640869140625 336.620513916015625 339.62603759765625 343.156890869140625 346.54193115234375 347.91021728515625 348.578643798828125 349.062164306640625 349.617431640625 350.11981201171875 352.024658203125 353.427154541015625 352.6258544921875 352.002197265625 349.34405517578125 348.308563232421875 348.6104736328125 349.4293212890625 349.339569091796875 348.83709716796875 348.450927734375 348.266571044921875 346.874847412109375 344.558502197265625 342.537628173828125 341.42694091796875 340.247589111328125 340.739898681640625 340.62872314453125 338.663818359375 336.199615478515625 333.25531005859375 330.019500732421875
280.39776611328125 278.657623291015625 278.4097900390625 277.9505615234375 277.699462890625 277.14239501953125 275.894378662109375 275.702392578125 275.38140869140625 274.8714599609375 274.370849609375 273.333251953125 270.671630859375 269.95159912109375 272.636993408203125 271.81622314453125 270.90728759765625 270.907318115234375 270.930633544921875 271.384674072265625 271.827392578125 271.192169189453125 270.65826416015625 269.54339599609375 268.628570556640625 268.36834716796875 267.558319091796875 266.7958984375 266.346588134765625 265.60906982421875 264.23187255859375 265.638519287109375 266.1248779296875 266.625457763671875 268.131439208984375 269.444488525390625 269.616058349609375 269.182586669921875 269.671600341796875 270.369873046875 271.354644775390625 270.527923583984375 269.29998779296875 267.742767333984375 266.601409912109375 265.774261474609375 265.175018310546875 264.79058837890625 264.217193603515625 263.37811279296875 262.684051513671875 262.2333984375 261.611968994140625 260.870208740234375 259.80126953125 258.90093994140625 257.915435791015625 257.2086181640625 256.271331787109375 253.9608612060546875 251.6754608154296875 249.561126708984375 247.715057373046875 246.4066314697265625 244.2669830322265625 243.5275726318359375 245.117919921875 245.70196533203125 244.8296966552734375 244.0491180419921875 243.707244873046875 243.3558197021484375 243.02239990234375 241.747894287109375 241.5990447998046875 241.48876953125 241.47869873046875 242.49169921875 242.4206085205078125 241.3131256103515625 242.13897705078125 240.7694091796875 240.8729705810546875 241.037567138671875 241.0898590087890625 241.782196044921875 244.297637939453125 244.75762939453125 244.256561279296875 243.81634521484375 244.994720458984375 247.7994232177734375 248.968048095703125 250.8092041015625 252.882904052734375 254.7183685302734375 255.363494873046875 255.901519775390625 256.085693359375 258.545501708984375 261.0523681640625 261.99114990234375 262.2281494140625 263.10577392578125 263.391937255859375 263.47772216796875 265.49664306640625 268.9195556640625 269.962890625 270.679901123046875 270.682464599609375 271.290283203125 268.810028076171875 265.88006591796875 260.396514892578125 254.994781494140625 251.9119110107421875 248.8640289306640625 246.4216156005859375 243.3678741455078125 240.6278076171875 238.1103515625 234.847198486328125 233.9850921630859375 234.736114501953125 234.9610595703125 234.9281768798828125 233.849212646484375 231.6909332275390625 233.421478271484375 235.6313629150390625 236.856292724609375 240.7971038818359375 248.257171630859375 246.841339111328125 242.128692626953125 239.28448486328125 238.5424346923828125 238.6123046875 236.32989501953125 235.1064300537109375 234.9287109375 233.8867645263671875 231.1977691650390625 228.6074676513671875 228.0289154052734375 223.1222076416015625 224.436981201171875 227.1381683349609375 228.5449981689453125 230.418121337890625 233.7508697509765625 233.7851715087890625 234.189453125 233.9100341796875 232.6492767333984375 234.5980072021484375 235.041107177734375 237.7226409912109375 241.3899078369140625 244.258819580078125 247.118316650390625 249.3448028564453125 252.2748870849609375 255.4296112060546875 258.2918701171875 261.116302490234375 264.927490234375 269.375946044921875 272.2724609375 275.275115966796875 278.27630615234375 280.77093505859375 283.266754150390625 287.138153076171875 292.165924072265625 296.3011474609375 302.013946533203125 310.118988037109375 315.94879150390625 323.092254638671875 327.812286376953125 331.99334716796875 335.434356689453125 338.1326904296875 341.282806396484375 344.1680908203125 345.28802490234375 345.61932373046875 347.2630615234375 348.641937255859375 349.7349853515625 350.346405029296875 350.385101318359375 348.29864501953125 348.008453369140625 347.044189453125 346.809814453125 346.95367431640625 347.6300048828125 348.03253173828125 347.278656005859375 346.621612548828125 346.24688720703125 345.50018310546875 343.849609375 341.577850341796875 340.318511962890625 339.170654296875 338.572723388671875 338.684814453125 336.987213134765625 334.9324951171875 332.825469970703125 329.835540771484375
280.543914794921875 278.612823486328125 278.135101318359375 277.885986328125 277.492095947265625 277.095428466796875 276.862060546875 275.815673828125 274.96405029296875 273.30621337890625 273.73052978515625 273.55615234375 273.84271240234375 269.948883056640625 269.52447509765625 270.9486083984375 270.907257080078125 271.36920166015625 271.188873291015625 271.82257080078125 271.885955810546875 271.05450439453125 270.673614501953125 269.741546630859375 268.664459228515625 268.679595947265625 268.35565185546875 266.91644287109375 266.30963134765625 265.33087158203125 263.8055419921875 265.102447509765625 265.69110107421875 266.435699462890625 268.27850341796875 269.592926025390625 269.14190673828125 268.5233154296875 268.909454345703125 269.390777587890625 270.00927734375 269.44580078125 267.9632568359375 266.508453369140625 265.3153076171875 264.25042724609375 263.570465087890625 263.204315185546875 262.827484130859375 262.350189208984375 261.5257568359375 260.897003173828125 260.407684326171875 259.6776123046875 258.635772705078125 257.760009765625 257.066253662109375 256.617919921875 255.622344970703125 253.8310394287109375 252.099273681640625 250.1247711181640625 247.5540313720703125 245.49530029296875 243.7523040771484375 242.9710845947265625 242.7507781982421875 242.6810455322265625 242.4728240966796875 242.18792724609375 242.0783233642578125 241.9423828125 241.942352294921875 242.0578155517578125 243.23028564453125 243.2382354736328125 243.212188720703125 243.15594482421875 241.94390869140625 242.8396759033203125 242.61187744140625 241.522491455078125 242.843780517578125 243.1251068115234375 242.5425872802734375 244.7012786865234375 245.98089599609375 247.4249267578125 247.077911376953125 245.3927001953125 247.6833648681640625 249.942718505859375 251.8631591796875 252.5746002197265625 254.4556884765625 256.2620849609375 259.232391357421875 260.832061767578125 260.01397705078125 261.4794921875 263.0621337890625 264.886566162109375 266.483062744140625 265.714019775390625 265.629608154296875 266.151519775390625 268.7413330078125 273.18109130859375 273.279022216796875 273.5467529296875 273.879791259765625 273.8809814453125 272.072021484375 269.231689453125 266.432098388671875 262.90753173828125 257.153533935546875 254.5438079833984375 251.3770751953125 248.591644287109375 245.076812744140625 242.5508270263671875 240.4007568359375 238.135528564453125 233.7989959716796875 232.5977783203125 232.4288482666015625 231.9418792724609375 232.233123779296875 231.6909027099609375 232.2647552490234375 235.9787139892578125 236.09600830078125 241.17132568359375 242.2973785400390625 239.4941558837890625 238.468292236328125 238.412200927734375 238.4708099365234375 235.7849884033203125 235.10870361328125 235.2949981689453125 233.3511505126953125 229.66119384765625 228.30267333984375 227.5008392333984375 222.373779296875 223.0850067138671875 224.047454833984375 229.63751220703125 233.6127777099609375 233.76043701171875 233.43426513671875 233.6024627685546875 231.7328948974609375 230.9386138916015625 233.699005126953125 232.3867645263671875 234.462615966796875 239.988067626953125 242.89495849609375 245.8184661865234375 247.8616485595703125 250.7931671142578125 254.542388916015625 257.661712646484375 260.31646728515625 263.773468017578125 267.074005126953125 270.301361083984375 273.95050048828125 276.551239013671875 279.25372314453125 282.09271240234375 285.557159423828125 290.3734130859375 294.459197998046875 299.2803955078125 305.411407470703125 313.14599609375 320.029541015625 326.192535400390625 331.262451171875 334.23370361328125 336.246551513671875 338.49029541015625 340.752532958984375 342.49615478515625 344.514892578125 346.742919921875 347.772308349609375 347.9112548828125 346.68975830078125 346.486663818359375 344.848388671875 346.128631591796875 346.276947021484375 345.40118408203125 345.978302001953125 346.34619140625 346.0989990234375 345.82733154296875 344.959228515625 344.10595703125 343.4609375 342.777587890625 340.968505859375 339.516021728515625 338.243499755859375 336.885223388671875 336.439666748046875 335.394561767578125 333.803253173828125 332.17822265625 329.594512939453125
280.220794677734375 278.558258056640625 277.782684326171875 277.379058837890625 277.229644775390625 277.002410888671875 276.831390380859375 276.7181396484375 276.28009033203125 275.15948486328125 272.31146240234375 272.9810791015625 273.321685791015625 271.42529296875 268.685028076171875 269.552734375 270.149932861328125 271.67230224609375 271.410888671875 270.720794677734375 271.480224609375 271.352508544921875 270.3607177734375 269.539764404296875 268.705535888671875 268.12762451171875 267.5870361328125 266.915740966796875 265.7197265625 264.90496826171875 263.4622802734375 264.841156005859375 265.591064453125 266.8526611328125 268.613555908203125 269.506622314453125 268.56878662109375 267.582122802734375 267.099212646484375 267.8822021484375 268.54388427734375 267.9697265625 266.365509033203125 265.108001708984375 264.10614013671875 263.01318359375 262.236419677734375 261.7708740234375 261.32135009765625 260.990325927734375 260.2132568359375 259.481597900390625 259.058349609375 258.317474365234375 257.223358154296875 256.420562744140625 255.936370849609375 255.3181915283203125 254.759765625 253.5359649658203125 251.8520965576171875 247.610382080078125 244.878448486328125 244.2064361572265625 243.7331085205078125 244.4582061767578125 244.1123046875 242.914794921875 242.538970947265625 242.2715911865234375 242.1392974853515625 243.560028076171875 243.657623291015625 243.84417724609375 243.856292724609375 243.7725067138671875 243.6836700439453125 243.539703369140625 242.45172119140625 243.651824951171875 242.7385406494140625 242.5296783447265625 243.826934814453125 243.969085693359375 244.7156524658203125 244.8292999267578125 247.2088470458984375 248.36981201171875 249.321258544921875 248.4395599365234375 250.86322021484375 252.0166168212890625 253.9921417236328125 255.0534515380859375 256.288177490234375 258.152618408203125 260.765716552734375 262.280426025390625 262.80975341796875 263.879486083984375 265.138824462890625 267.5975341796875 270.89434814453125 269.07904052734375 268.628448486328125 268.639434814453125 270.32220458984375 272.61431884765625 273.107635498046875 276.15057373046875 275.966552734375 276.03082275390625 274.740692138671875 272.59002685546875 270.508270263671875 267.969512939453125 262.884429931640625 258.084808349609375 256.10650634765625 254.052520751953125 251.5461578369140625 247.15325927734375 244.443115234375 241.885345458984375 239.15435791015625 237.0237579345703125 235.339019775390625 235.6689300537109375 236.65960693359375 236.87445068359375 231.6908721923828125 235.0751800537109375 236.4413909912109375 238.2558135986328125 239.8734588623046875 239.19873046875 238.429840087890625 238.399017333984375 238.05755615234375 236.513946533203125 236.0226287841796875 236.2913970947265625 234.0663909912109375 232.2741546630859375 229.19366455078125 226.3870086669921875 222.16949462890625 220.7189788818359375 224.07403564453125 229.7526092529296875 230.85833740234375 231.4664764404296875 231.653106689453125 230.8584442138671875 227.3025665283203125 232.0645599365234375 231.1612396240234375 230.462188720703125 235.543853759765625 237.7143096923828125 240.5837249755859375 243.7085418701171875 246.0911102294921875 248.7873687744140625 252.4966888427734375 256.0809326171875 258.8931884765625 261.601654052734375 264.282562255859375 267.783843994140625 271.75335693359375 274.712249755859375 276.38555908203125 280.015045166015625 283.4888916015625 287.4090576171875 292.70013427734375 297.3135986328125 302.505218505859375 309.597076416015625 317.5118408203125 323.75 328.2681884765625 330.951690673828125 332.85247802734375 335.50775146484375 337.614837646484375 339.87811279296875 342.9544677734375 344.156829833984375 343.0899658203125 343.111083984375 342.00830078125 342.179107666015625 342.665130615234375 344.3341064453125 344.7587890625 344.381195068359375 344.43121337890625 344.507965087890625 344.134307861328125 343.90423583984375 343.1820068359375 342.26025390625 341.13330078125 340.594085693359375 339.764007568359375 338.2457275390625 337.10369873046875 335.74951171875 334.429473876953125 333.375946044921875 332.407928466796875 331.156524658203125 328.753448486328125
280.963531494140625 279.27740478515625 277.920013427734375 277.2347412109375 276.856964111328125 276.695526123046875 276.659698486328125 276.51019287109375 276.159149169921875 275.571075439453125 274.289581298828125 271.61102294921875 271.274444580078125 270.824066162109375 268.749237060546875 268.140777587890625 269.0625 270.1357421875 270.572296142578125 270.06024169921875 270.27960205078125 271.17132568359375 270.54705810546875 269.287506103515625 268.73919677734375 267.933380126953125 267.07061767578125 266.38348388671875 265.347686767578125 264.56817626953125 262.92303466796875 264.825225830078125 266.032196044921875 267.255950927734375 268.8856201171875 269.2711181640625 267.69879150390625 266.7379150390625 265.897064208984375 266.32366943359375 266.52099609375 266.12188720703125 264.775543212890625 263.934295654296875 263.047454833984375 261.9793701171875 261.03277587890625 260.189117431640625 259.572052001953125 259.25848388671875 258.649017333984375 258.052154541015625 257.720489501953125 257.0126953125 255.9526824951171875 255.0567169189453125 254.551666259765625 254.1972503662109375 253.511383056640625 251.450958251953125 249.4654693603515625 247.7573089599609375 248.785552978515625 248.247039794921875 247.1540679931640625 246.1375274658203125 245.50634765625 245.631317138671875 245.136749267578125 245.2884063720703125 245.4656829833984375 244.712127685546875 244.587310791015625 244.508514404296875 244.4788818359375 244.48187255859375 244.4114990234375 244.32330322265625 243.4794158935546875 244.5927581787109375 244.1356658935546875 245.3595428466796875 245.3294830322265625 245.4926605224609375 245.6263580322265625 246.7469024658203125 246.682525634765625 247.2934417724609375 250.97344970703125 252.815887451171875 253.7395782470703125 254.18463134765625 255.481658935546875 257.455108642578125 258.50445556640625 259.394500732421875 261.280670166015625 263.31085205078125 264.21966552734375 266.249267578125 268.30340576171875 270.292999267578125 270.551239013671875 271.529754638671875 271.15423583984375 270.91278076171875 271.813446044921875 272.5823974609375 274.399078369140625 276.496124267578125 276.758087158203125 276.3494873046875 275.827545166015625 274.61199951171875 272.59661865234375 270.0732421875 266.75982666015625 262.4053955078125 259.2086181640625 257.058258056640625 255.5061187744140625 252.2030487060546875 249.7017364501953125 246.687957763671875 243.9276885986328125 241.1892852783203125 239.422027587890625 238.4883270263671875 238.410369873046875 240.03839111328125 236.9154510498046875 231.1454620361328125 235.13372802734375 237.6803436279296875 239.2850799560546875 238.60028076171875 238.4372711181640625 238.3760223388671875 238.0475311279296875 237.1961517333984375 237.069305419921875 236.6225738525390625 236.3071441650390625 234.9790191650390625 230.996368408203125 225.25555419921875 222.609832763671875 220.5199127197265625 227.6756591796875 229.8993988037109375 229.7358551025390625 229.7179412841796875 229.694671630859375 228.922515869140625 226.729736328125 230.5053863525390625 230.462158203125 233.2148590087890625 235.7061309814453125 238.202545166015625 240.204071044921875 242.8230438232421875 245.031829833984375 246.60107421875 249.8935394287109375 254.1303253173828125 257.62103271484375 260.148651123046875 262.6759033203125 265.8250732421875 268.327056884765625 272.080841064453125 276.11956787109375 279.49200439453125 283.1962890625 287.2413330078125 291.40325927734375 296.1412353515625 300.163665771484375 305.616912841796875 313.6793212890625 320.254974365234375 324.115478515625 326.183349609375 329.521881103515625 333.3580322265625 335.349029541015625 337.600311279296875 339.801971435546875 339.18524169921875 338.001983642578125 338.127044677734375 339.468231201171875 340.1856689453125 340.91754150390625 342.076324462890625 342.778350830078125 342.7694091796875 342.850799560546875 342.83160400390625 342.161346435546875 341.828216552734375 341.4150390625 340.50555419921875 339.04095458984375 339.596588134765625 338.65167236328125 336.4163818359375 335.291015625 334.35003662109375 333.05303955078125 331.596160888671875 330.808319091796875 329.5927734375 327.6497802734375
