ncols         116
nrows         32
xllcorner     383300
yllcorner     7543366
cellsize      16
NODATA_value  -9999
2.878199999999999932e+02 2.876236999999999853e+02 2.871632999999999925e+02 2.870049000000000206e+02 2.868439000000000192e+02 2.867131999999999721e+02 2.867044999999999959e+02 2.868276999999999930e+02 2.870443999999999960e+02 2.877939000000000078e+02 2.883319000000000187e+02 2.880335000000000036e+02 2.880317000000000007e+02 2.885633000000000266e+02 2.891571999999999889e+02 2.891738000000000284e+02 2.893297999999999774e+02 2.894974000000000274e+02 2.902130000000000223e+02 2.903253000000000270e+02 2.895586000000000126e+02 2.896825000000000045e+02 2.921614999999999895e+02 2.929125000000000227e+02 2.921827000000000112e+02 2.913211999999999762e+02 2.889463999999999828e+02 2.882205999999999904e+02 2.878030999999999722e+02 2.862341999999999871e+02 2.848609999999999900e+02 2.841195999999999913e+02 2.834130000000000109e+02 2.830077999999999747e+02 2.826530000000000200e+02 2.822558000000000220e+02 2.820348999999999933e+02 2.819096999999999866e+02 2.818697999999999979e+02 2.820541000000000054e+02 2.828826999999999998e+02 2.842137999999999920e+02 2.859026000000000067e+02 2.882722999999999729e+02 2.903731000000000222e+02 2.929972000000000207e+02 2.961447000000000003e+02 2.977461000000000126e+02 3.002996999999999730e+02 3.028727000000000089e+02 3.052767000000000053e+02 3.076764000000000010e+02 3.099871999999999730e+02 3.120572999999999979e+02 3.139236999999999966e+02 3.156655000000000086e+02 3.171150000000000091e+02 3.184891000000000076e+02 3.199103999999999814e+02 3.212321000000000026e+02 3.224785999999999717e+02 3.239811000000000263e+02 3.255333999999999719e+02 3.269268999999999892e+02 3.284404000000000110e+02 3.301963000000000079e+02 3.320122999999999820e+02 3.335262000000000171e+02 3.348127000000000066e+02 3.358371000000000208e+02 3.367375000000000114e+02 3.378444000000000074e+02 3.391433999999999855e+02 3.407352000000000203e+02 3.421999000000000137e+02 3.431641999999999939e+02 3.439039000000000215e+02 3.446840000000000259e+02 3.455342999999999734e+02 3.461951000000000249e+02 3.467672000000000025e+02 3.471703999999999724e+02 3.475418999999999983e+02 3.480421000000000049e+02 3.485307000000000244e+02 3.488351000000000113e+02 3.489218999999999937e+02 3.490409999999999968e+02 3.496465999999999781e+02 -9.999000000000000000e+03 -9.999000000000000000e+03 -9.999000000000000000e+03 -9.999000000000000000e+03 -9.999000000000000000e+03 -9.999000000000000000e+03 -9.999000000000000000e+03 -9.999000000000000000e+03 -9.999000000000000000e+03 -9.999000000000000000e+03 -9.999000000000000000e+03 -9.999000000000000000e+03 -9.999000000000000000e+03 -9.999000000000000000e+03 -9.999000000000000000e+03 -9.999000000000000000e+03 -9.999000000000000000e+03 -9.999000000000000000e+03 -9.999000000000000000e+03 -9.999000000000000000e+03 -9.999000000000000000e+03 -9.999000000000000000e+03 -9.999000000000000000e+03 -9.999000000000000000e+03 -9.999000000000000000e+03 -9.999000000000000000e+03 -9.999000000000000000e+03
2.877841000000000236e+02 2.876816999999999780e+02 2.875317000000000007e+02 2.875122999999999820e+02 2.872271000000000072e+02 2.869968000000000075e+02 2.869200000000000159e+02 2.871510999999999854e+02 2.876322999999999865e+02 2.883521999999999821e+02 2.885092000000000212e+02 2.883999999999999773e+02 2.884646999999999935e+02 2.889465000000000146e+02 2.897332000000000107e+02 2.899766000000000190e+02 2.899492999999999938e+02 2.904750999999999976e+02 2.917341999999999871e+02 2.916333000000000197e+02 2.908056000000000267e+02 2.915015000000000214e+02 2.916999999999999886e+02 2.899707000000000221e+02 2.895561999999999898e+02 2.895373999999999910e+02 2.888453999999999837e+02 2.889168999999999983e+02 2.883750999999999749e+02 2.860892999999999802e+02 2.847208999999999719e+02 2.841929999999999836e+02 2.837001000000000204e+02 2.833030999999999722e+02 2.829725000000000250e+02 2.826265999999999963e+02 2.823849000000000160e+02 2.821537000000000148e+02 2.820321000000000140e+02 2.822345000000000255e+02 2.831759000000000128e+02 2.844132999999999925e+02 2.861587000000000103e+02 2.885747000000000071e+02 2.910765000000000100e+02 2.929732000000000198e+02 2.959443999999999733e+02 2.980031000000000176e+02 3.004977000000000089e+02 3.029941000000000031e+02 3.053263999999999783e+02 3.076519000000000119e+02 3.099329000000000178e+02 3.121818000000000097e+02 3.142004000000000019e+02 3.160885000000000105e+02 3.176618000000000279e+02 3.189361000000000104e+02 3.203620000000000232e+02 3.217044000000000210e+02 3.229483999999999924e+02 3.243509000000000242e+02 3.258140999999999963e+02 3.271784999999999854e+02 3.286677000000000248e+02 3.302962999999999738e+02 3.321474999999999795e+02 3.338068999999999846e+02 3.350539999999999736e+02 3.359997000000000185e+02 3.368956999999999766e+02 3.377746000000000208e+02 3.389447999999999865e+02 3.404891000000000076e+02 3.418804000000000087e+02 3.428534000000000219e+02 3.436225000000000023e+02 3.445312000000000126e+02 3.454542000000000144e+02 3.460935000000000059e+02 3.466698999999999842e+02 3.472047000000000025e+02 3.476046999999999798e+02 3.482033000000000129e+02 3.489669999999999845e+02 3.495122999999999820e+02 3.495423000000000116e+02 3.494028000000000134e+02 3.495439999999999827e+02 -9.999000000000000000e+03 -9.999000000000000000e+03 -9.999000000000000000e+03 -9.999000000000000000e+03 -9.999000000000000000e+03 -9.999000000000000000e+03 -9.999000000000000000e+03 -9.999000000000000000e+03 -9.999000000000000000e+03 -9.999000000000000000e+03 -9.999000000000000000e+03 -9.999000000000000000e+03 -9.999000000000000000e+03 -9.999000000000000000e+03 -9.999000000000000000e+03 -9.999000000000000000e+03 -9.999000000000000000e+03 -9.999000000000000000e+03 -9.999000000000000000e+03 -9.999000000000000000e+03 -9.999000000000000000e+03 -9.999000000000000000e+03 -9.999000000000000000e+03 -9.999000000000000000e+03 -9.999000000000000000e+03 -9.999000000000000000e+03 -9.999000000000000000e+03
2.878698999999999728e+02 2.877114000000000260e+02 2.876915000000000191e+02 2.877155999999999949e+02 2.875720000000000027e+02 2.873602999999999952e+02 2.873048000000000002e+02 2.876057000000000130e+02 2.882504999999999882e+02 2.888428999999999860e+02 2.887167000000000030e+02 2.887748000000000275e+02 2.889680999999999926e+02 2.893416000000000281e+02 2.900231999999999744e+02 2.905269000000000119e+02 2.910378000000000043e+02 2.920398999999999887e+02 2.924836000000000240e+02 2.918752000000000066e+02 2.913129999999999882e+02 2.907819000000000074e+02 2.897579000000000065e+02 2.891023999999999887e+02 2.888989000000000260e+02 2.888453999999999837e+02 2.888453999999999837e+02 2.892296000000000049e+02 2.883480000000000132e+02 2.859259999999999877e+02 2.847662000000000262e+02 2.843231999999999857e+02 2.838577000000000226e+02 2.835262000000000171e+02 2.833376000000000090e+02 2.830477000000000203e+02 2.827740000000000009e+02 2.824913999999999987e+02 2.822463999999999942e+02 2.825101000000000226e+02 2.833369000000000142e+02 2.845188999999999737e+02 2.862762000000000171e+02 2.883351999999999862e+02 2.910944999999999823e+02 2.930443000000000211e+02 2.958885000000000218e+02 2.980858999999999810e+02 3.006562999999999874e+02 3.032735000000000127e+02 3.056265999999999963e+02 3.078886999999999716e+02 3.101777999999999906e+02 3.124485999999999990e+02 3.145239000000000260e+02 3.165452999999999975e+02 3.182058999999999855e+02 3.193806000000000154e+02 3.206302000000000021e+02 3.219753000000000043e+02 3.233283999999999878e+02 3.247196999999999889e+02 3.261650000000000205e+02 3.275702999999999747e+02 3.290495999999999981e+02 3.306107000000000085e+02 3.322826000000000022e+02 3.339748999999999910e+02 3.352615999999999872e+02 3.362925999999999931e+02 3.371804000000000201e+02 3.379212999999999738e+02 3.389153999999999769e+02 3.402162000000000148e+02 3.415602999999999838e+02 3.426095000000000255e+02 3.435514000000000010e+02 3.444599999999999795e+02 3.452105999999999995e+02 3.458647000000000276e+02 3.464694999999999823e+02 3.470505999999999744e+02 3.475819000000000187e+02 3.484168999999999983e+02 3.493376000000000090e+02 3.498199000000000183e+02 3.498133000000000266e+02 3.496127000000000180e+02 3.495355999999999881e+02 -9.999000000000000000e+03 -9.999000000000000000e+03 -9.999000000000000000e+03 -9.999000000000000000e+03 -9.999000000000000000e+03 -9.999000000000000000e+03 -9.999000000000000000e+03 -9.999000000000000000e+03 -9.999000000000000000e+03 -9.999000000000000000e+03 -9.999000000000000000e+03 -9.999000000000000000e+03 -9.999000000000000000e+03 -9.999000000000000000e+03 -9.999000000000000000e+03 -9.999000000000000000e+03 -9.999000000000000000e+03 -9.999000000000000000e+03 -9.999000000000000000e+03 -9.999000000000000000e+03 -9.999000000000000000e+03 -9.999000000000000000e+03 -9.999000000000000000e+03 -9.999000000000000000e+03 -9.999000000000000000e+03 -9.999000000000000000e+03 -9.999000000000000000e+03
2.880040000000000191e+02 2.877712000000000216e+02 2.877533999999999992e+02 2.878147999999999911e+02 2.878799000000000206e+02 2.878414000000000215e+02 2.878190000000000168e+02 2.881711000000000240e+02 2.889026999999999816e+02 2.891818999999999846e+02 2.889904000000000224e+02 2.891657999999999902e+02 2.894658999999999764e+02 2.897807000000000244e+02 2.904338000000000193e+02 2.912115999999999758e+02 2.922576000000000249e+02 2.925733999999999924e+02 2.924413999999999874e+02 2.916804000000000201e+02 2.911143999999999892e+02 2.902090000000000032e+02 2.896831999999999994e+02 2.899639000000000237e+02 2.892321999999999775e+02 2.888519000000000005e+02 2.890393000000000256e+02 2.889710999999999785e+02 2.879891999999999825e+02 2.862250000000000227e+02 2.849216999999999871e+02 2.844748999999999910e+02 2.840670000000000073e+02 2.838351999999999862e+02 2.837221000000000117e+02 2.835573999999999728e+02 2.832294999999999732e+02 2.828297999999999774e+02 2.825350999999999999e+02 2.827166000000000281e+02 2.833686999999999898e+02 2.845058999999999969e+02 2.863374000000000024e+02 2.884221999999999753e+02 2.909993000000000052e+02 2.932518999999999778e+02 2.958120999999999867e+02 2.982216999999999985e+02 3.008996999999999957e+02 3.034368000000000052e+02 3.059209000000000174e+02 3.082633000000000152e+02 3.105269999999999868e+02 3.127090000000000032e+02 3.148304999999999723e+02 3.168729999999999905e+02 3.185883999999999787e+02 3.198886999999999716e+02 3.209995999999999867e+02 3.221695000000000277e+02 3.235291000000000281e+02 3.250792000000000144e+02 3.267679999999999723e+02 3.280292000000000030e+02 3.293142000000000280e+02 3.308048999999999751e+02 3.323747999999999934e+02 3.340607999999999720e+02 3.354415000000000191e+02 3.365049999999999955e+02 3.374694000000000074e+02 3.383555000000000064e+02 3.392749000000000024e+02 3.403392999999999802e+02 3.414340000000000259e+02 3.425258000000000038e+02 3.434880999999999744e+02 3.442626999999999953e+02 3.447737000000000194e+02 3.453808999999999969e+02 3.461490000000000009e+02 3.469886000000000195e+02 3.478256999999999834e+02 3.487282000000000153e+02 3.496034000000000219e+02 3.499293000000000120e+02 3.499146000000000072e+02 3.499556000000000040e+02 3.497662000000000262e+02 -9.999000000000000000e+03 -9.999000000000000000e+03 -9.999000000000000000e+03 -9.999000000000000000e+03 -9.999000000000000000e+03 -9.999000000000000000e+03 -9.999000000000000000e+03 -9.999000000000000000e+03 -9.999000000000000000e+03 -9.999000000000000000e+03 -9.999000000000000000e+03 -9.999000000000000000e+03 -9.999000000000000000e+03 -9.999000000000000000e+03 -9.999000000000000000e+03 -9.999000000000000000e+03 -9.999000000000000000e+03 -9.999000000000000000e+03 -9.999000000000000000e+03 -9.999000000000000000e+03 -9.999000000000000000e+03 -9.999000000000000000e+03 -9.999000000000000000e+03 -9.999000000000000000e+03 -9.999000000000000000e+03 -9.999000000000000000e+03 -9.999000000000000000e+03
2.881524000000000001e+02 2.879506999999999834e+02 2.879809999999999945e+02 2.881404999999999745e+02 2.883457000000000221e+02 2.883802999999999770e+02 2.883786999999999807e+02 2.887968000000000188e+02 2.895120999999999754e+02 2.894873000000000047e+02 2.893358999999999810e+02 2.895876999999999839e+02 2.899270000000000209e+02 2.902320000000000277e+02 2.911447999999999752e+02 2.921485000000000127e+02 2.926908999999999992e+02 2.925711000000000013e+02 2.920933999999999742e+02 2.913827999999999747e+02 2.909239999999999782e+02 2.904562000000000239e+02 2.906610999999999763e+02 2.912133000000000038e+02 2.898695000000000164e+02 2.889019999999999868e+02 2.888779000000000110e+02 2.886379000000000019e+02 2.881150999999999840e+02 2.868376000000000090e+02 2.852296000000000049e+02 2.847939000000000078e+02 2.844001000000000090e+02 2.841318999999999733e+02 2.840258999999999787e+02 2.839307999999999765e+02 2.836229000000000156e+02 2.830783000000000129e+02 2.828394000000000119e+02 2.829547000000000025e+02 2.835853999999999928e+02 2.847468999999999824e+02 2.863806000000000154e+02 2.884719000000000051e+02 2.913383999999999787e+02 2.936048999999999864e+02 2.958407000000000266e+02 2.983344000000000165e+02 3.009024999999999750e+02 3.036035999999999717e+02 3.061936999999999784e+02 3.086684000000000196e+02 3.109594000000000165e+02 3.132106999999999744e+02 3.152706999999999766e+02 3.171259999999999764e+02 3.188605999999999767e+02 3.203446999999999889e+02 3.214836000000000240e+02 3.225049000000000206e+02 3.237825000000000273e+02 3.253315999999999804e+02 3.269674999999999727e+02 3.283274000000000115e+02 3.295317000000000007e+02 3.309051000000000045e+02 3.324861000000000217e+02 3.340606999999999971e+02 3.353797999999999888e+02 3.365471999999999753e+02 3.376270000000000095e+02 3.386177999999999884e+02 3.395192999999999870e+02 3.403822000000000116e+02 3.411786999999999921e+02 3.421363000000000056e+02 3.431680000000000064e+02 3.438951999999999884e+02 3.445065999999999917e+02 3.453340999999999781e+02 3.461779999999999973e+02 3.470541999999999803e+02 3.479279000000000224e+02 3.488224000000000160e+02 3.496372999999999820e+02 3.501186000000000149e+02 3.501768000000000143e+02 -9.999000000000000000e+03 -9.999000000000000000e+03 -9.999000000000000000e+03 -9.999000000000000000e+03 -9.999000000000000000e+03 -9.999000000000000000e+03 -9.999000000000000000e+03 -9.999000000000000000e+03 -9.999000000000000000e+03 -9.999000000000000000e+03 -9.999000000000000000e+03 -9.999000000000000000e+03 -9.999000000000000000e+03 -9.999000000000000000e+03 -9.999000000000000000e+03 -9.999000000000000000e+03 -9.999000000000000000e+03 -9.999000000000000000e+03 -9.999000000000000000e+03 -9.999000000000000000e+03 -9.999000000000000000e+03 -9.999000000000000000e+03 -9.999000000000000000e+03 -9.999000000000000000e+03 -9.999000000000000000e+03 -9.999000000000000000e+03 -9.999000000000000000e+03 -9.999000000000000000e+03 -9.999000000000000000e+03
2.884121000000000095e+02 2.882807999999999993e+02 2.884100999999999999e+02 2.887117999999999824e+02 2.889041000000000281e+02 2.889178999999999746e+02 2.889155000000000086e+02 2.894152000000000271e+02 2.900242999999999824e+02 2.899100999999999999e+02 2.897848999999999933e+02 2.900998000000000161e+02 2.904474000000000160e+02 2.908616999999999848e+02 2.923256999999999834e+02 2.926147000000000276e+02 2.924456000000000131e+02 2.923480999999999881e+02 2.918204999999999814e+02 2.913213999999999828e+02 2.908346999999999980e+02 2.906811000000000149e+02 2.913570000000000277e+02 2.909599000000000046e+02 2.891995999999999754e+02 2.888539999999999850e+02 2.888539999999999850e+02 2.888978000000000179e+02 2.880613000000000170e+02 2.867780000000000200e+02 2.855391999999999939e+02 2.851261000000000081e+02 2.849325000000000045e+02 2.846365000000000123e+02 2.843430000000000177e+02 2.842384999999999877e+02 2.840500000000000114e+02 2.836102999999999952e+02 2.831582000000000221e+02 2.831662000000000035e+02 2.838514999999999873e+02 2.849546000000000276e+02 2.863634999999999877e+02 2.883681000000000267e+02 2.913532999999999902e+02 2.937092999999999847e+02 2.959660000000000082e+02 2.985869999999999891e+02 3.010124999999999886e+02 3.037599000000000160e+02 3.065072999999999865e+02 3.090344000000000051e+02 3.113641999999999825e+02 3.136736000000000217e+02 3.155946000000000140e+02 3.173817000000000235e+02 3.190565000000000282e+02 3.205760000000000218e+02 3.218034000000000106e+02 3.230264000000000237e+02 3.243211000000000013e+02 3.255876000000000090e+02 3.270126000000000204e+02 3.284823999999999842e+02 3.296854000000000156e+02 3.310667000000000257e+02 3.326125999999999863e+02 3.340332000000000221e+02 3.352524999999999977e+02 3.364537000000000262e+02 3.375430999999999813e+02 3.385704000000000065e+02 3.394880999999999744e+02 3.402656999999999812e+02 3.410283000000000015e+02 3.417714000000000283e+02 3.427302000000000248e+02 3.435890999999999735e+02 3.446093999999999937e+02 3.454902000000000157e+02 3.462869999999999777e+02 3.471847000000000207e+02 3.479839000000000055e+02 3.488224000000000160e+02 3.496349999999999909e+02 3.501766999999999825e+02 3.503541999999999916e+02 -9.999000000000000000e+03 -9.999000000000000000e+03 -9.999000000000000000e+03 -9.999000000000000000e+03 -9.999000000000000000e+03 -9.999000000000000000e+03 -9.999000000000000000e+03 -9.999000000000000000e+03 -9.999000000000000000e+03 -9.999000000000000000e+03 -9.999000000000000000e+03 -9.999000000000000000e+03 -9.999000000000000000e+03 -9.999000000000000000e+03 -9.999000000000000000e+03 -9.999000000000000000e+03 -9.999000000000000000e+03 -9.999000000000000000e+03 -9.999000000000000000e+03 -9.999000000000000000e+03 -9.999000000000000000e+03 -9.999000000000000000e+03 -9.999000000000000000e+03 -9.999000000000000000e+03 -9.999000000000000000e+03 -9.999000000000000000e+03 -9.999000000000000000e+03 -9.999000000000000000e+03 -9.999000000000000000e+03
2.887359999999999900e+02 2.886831999999999994e+02 2.889434999999999718e+02 2.893308999999999855e+02 2.894420999999999822e+02 2.894546000000000276e+02 2.895038999999999874e+02 2.900203999999999951e+02 2.905210000000000150e+02 2.903847000000000094e+02 2.903575999999999908e+02 2.906798999999999751e+02 2.909246999999999730e+02 2.919060999999999808e+02 2.931659999999999968e+02 2.925654999999999859e+02 2.923509999999999991e+02 2.921607999999999947e+02 2.918004000000000246e+02 2.913104000000000156e+02 2.908720000000000141e+02 2.908163000000000125e+02 2.913156000000000176e+02 2.900869000000000142e+02 2.888539999999999850e+02 2.888539999999999850e+02 2.888539999999999850e+02 2.890670999999999822e+02 2.880081000000000131e+02 2.867513999999999896e+02 2.857961000000000240e+02 2.853797000000000139e+02 2.852126000000000090e+02 2.850403999999999769e+02 2.846569999999999823e+02 2.844164000000000101e+02 2.843023000000000025e+02 2.840801000000000158e+02 2.836981999999999857e+02 2.834268000000000143e+02 2.840294999999999845e+02 2.851732999999999834e+02 2.864268000000000143e+02 2.883806000000000154e+02 2.911637999999999806e+02 2.937008999999999901e+02 2.961116999999999848e+02 2.986634999999999991e+02 3.008910999999999945e+02 3.037243000000000279e+02 3.066512999999999920e+02 3.095054000000000087e+02 3.118353999999999928e+02 3.141003999999999792e+02 3.160147999999999797e+02 3.177459000000000060e+02 3.192733999999999810e+02 3.207083000000000084e+02 3.221039000000000101e+02 3.234882000000000062e+02 3.247438999999999965e+02 3.258919000000000210e+02 3.272210999999999785e+02 3.285591999999999757e+02 3.299581999999999766e+02 3.314725999999999999e+02 3.329236000000000217e+02 3.340335999999999785e+02 3.351019999999999754e+02 3.363638000000000261e+02 3.373854999999999791e+02 3.382330000000000041e+02 3.390690000000000168e+02 3.399085999999999785e+02 3.407714000000000283e+02 3.417096000000000231e+02 3.427226999999999748e+02 3.437056999999999789e+02 3.448070000000000164e+02 3.456383999999999901e+02 3.464572000000000003e+02 3.472909999999999968e+02 3.480724000000000160e+02 3.488589000000000055e+02 3.496345999999999776e+02 3.501485999999999876e+02 3.503491999999999962e+02 3.502683999999999855e+02 3.497662000000000262e+02 3.492894999999999754e+02 3.491906000000000176e+02 3.493174999999999955e+02 -9.999000000000000000e+03 -9.999000000000000000e+03 -9.999000000000000000e+03 -9.999000000000000000e+03 -9.999000000000000000e+03 -9.999000000000000000e+03 -9.999000000000000000e+03 -9.999000000000000000e+03 -9.999000000000000000e+03 -9.999000000000000000e+03 -9.999000000000000000e+03 -9.999000000000000000e+03 -9.999000000000000000e+03 -9.999000000000000000e+03 -9.999000000000000000e+03 -9.999000000000000000e+03 -9.999000000000000000e+03 -9.999000000000000000e+03 -9.999000000000000000e+03 -9.999000000000000000e+03 -9.999000000000000000e+03 -9.999000000000000000e+03 -9.999000000000000000e+03 -9.999000000000000000e+03
2.890457000000000107e+02 2.890822000000000003e+02 2.895212999999999965e+02 2.899010999999999854e+02 2.899719999999999800e+02 2.900149999999999864e+02 2.901417000000000144e+02 2.906490000000000009e+02 2.910561999999999898e+02 2.908088000000000193e+02 2.908831999999999880e+02 2.912003000000000270e+02 2.915323999999999955e+02 2.930357999999999947e+02 2.930672999999999888e+02 2.924760999999999740e+02 2.923691999999999780e+02 2.921940999999999917e+02 2.918509000000000242e+02 2.912429000000000201e+02 2.909214000000000055e+02 2.908163000000000125e+02 2.909796000000000049e+02 2.900074000000000183e+02 2.889028000000000134e+02 2.889184000000000196e+02 2.888539999999999850e+02 2.891820999999999913e+02 2.881232999999999720e+02 2.867697000000000003e+02 2.859723999999999933e+02 2.855509999999999877e+02 2.853242000000000189e+02 2.851696999999999775e+02 2.849345000000000141e+02 2.846365000000000123e+02 2.845013999999999896e+02 2.843806000000000154e+02 2.841628000000000043e+02 2.838407000000000266e+02 2.842361000000000217e+02 2.855332000000000221e+02 2.868842000000000212e+02 2.887857000000000198e+02 2.910776000000000181e+02 2.938498000000000161e+02 2.960498000000000047e+02 2.984408999999999992e+02 3.008050999999999817e+02 3.035839000000000283e+02 3.064388999999999896e+02 3.093324000000000069e+02 3.120158000000000129e+02 3.144913999999999987e+02 3.165120999999999754e+02 3.182081000000000017e+02 3.196786999999999921e+02 3.210095999999999776e+02 3.223842000000000212e+02 3.236356999999999857e+02 3.248423000000000229e+02 3.261399999999999864e+02 3.274932999999999765e+02 3.287771999999999935e+02 3.302001000000000204e+02 3.317314999999999827e+02 3.331179999999999950e+02 3.341671000000000049e+02 3.350813999999999737e+02 3.362201999999999771e+02 3.371370999999999754e+02 3.378063000000000216e+02 3.386938000000000102e+02 3.398373000000000275e+02 3.409941999999999780e+02 3.422785000000000082e+02 3.432871999999999844e+02 3.440128000000000270e+02 3.449361000000000104e+02 3.457712999999999965e+02 3.465070999999999799e+02 3.472764000000000237e+02 3.480930000000000177e+02 3.488226000000000226e+02 3.495203999999999951e+02 3.499703999999999837e+02 3.502405999999999722e+02 3.502128999999999905e+02 3.496528000000000134e+02 3.491888999999999896e+02 3.491138000000000261e+02 3.492235999999999763e+02 3.489898000000000025e+02 -9.999000000000000000e+03 -9.999000000000000000e+03 -9.999000000000000000e+03 -9.999000000000000000e+03 -9.999000000000000000e+03 -9.999000000000000000e+03 -9.999000000000000000e+03 -9.999000000000000000e+03 -9.999000000000000000e+03 -9.999000000000000000e+03 -9.999000000000000000e+03 -9.999000000000000000e+03 -9.999000000000000000e+03 -9.999000000000000000e+03 -9.999000000000000000e+03 -9.999000000000000000e+03 -9.999000000000000000e+03 -9.999000000000000000e+03 -9.999000000000000000e+03 -9.999000000000000000e+03 -9.999000000000000000e+03 -9.999000000000000000e+03 -9.999000000000000000e+03
2.893765999999999963e+02 2.894821999999999775e+02 2.901001999999999725e+02 2.905203999999999951e+02 2.905326000000000022e+02 2.906537000000000148e+02 2.908057000000000016e+02 2.912887000000000057e+02 2.915645000000000095e+02 2.912493000000000052e+02 2.913630999999999744e+02 2.915942000000000007e+02 2.919787000000000035e+02 2.930061999999999784e+02 2.926249000000000251e+02 2.924911000000000172e+02 2.925729000000000042e+02 2.923731999999999971e+02 2.919375999999999749e+02 2.913985000000000127e+02 2.910507999999999811e+02 2.910826999999999884e+02 2.914182999999999879e+02 2.911521000000000186e+02 2.902703000000000202e+02 2.896485999999999876e+02 2.890813999999999737e+02 2.896431999999999789e+02 2.882622999999999820e+02 2.870240000000000009e+02 2.862665999999999826e+02 2.858147999999999911e+02 2.854540000000000077e+02 2.852927999999999997e+02 2.851254999999999882e+02 2.848652999999999906e+02 2.846852000000000089e+02 2.845948000000000206e+02 2.844220000000000255e+02 2.841039999999999850e+02 2.843679000000000201e+02 2.858140000000000214e+02 2.875231999999999744e+02 2.895262999999999920e+02 2.916392000000000166e+02 2.941324000000000183e+02 2.961317999999999984e+02 2.985593999999999824e+02 3.008906999999999812e+02 3.034820000000000277e+02 3.062493000000000052e+02 3.091840000000000259e+02 3.121028000000000020e+02 3.147792999999999779e+02 3.166508999999999787e+02 3.181331999999999880e+02 3.195941000000000258e+02 3.208827999999999747e+02 3.222538000000000125e+02 3.235758999999999901e+02 3.248532999999999902e+02 3.261274999999999977e+02 3.274657000000000266e+02 3.288439000000000192e+02 3.302443999999999846e+02 3.318439000000000192e+02 3.332054999999999723e+02 3.343405000000000200e+02 3.350839000000000283e+02 3.359098000000000184e+02 3.366496999999999957e+02 3.375441000000000145e+02 3.387137999999999920e+02 3.400462999999999738e+02 3.414700000000000273e+02 3.429223999999999819e+02 3.439001999999999839e+02 3.444103000000000065e+02 3.450774999999999864e+02 3.457592000000000212e+02 3.464064999999999941e+02 3.472226999999999748e+02 3.480312999999999874e+02 3.486870000000000118e+02 3.493283000000000129e+02 3.497416999999999803e+02 3.499234999999999900e+02 3.498743000000000052e+02 3.494619999999999891e+02 3.490382000000000176e+02 3.488564999999999827e+02 3.488808999999999969e+02 3.487662000000000262e+02 3.487665999999999826e+02 3.487937999999999761e+02 -9.999000000000000000e+03 -9.999000000000000000e+03 -9.999000000000000000e+03 -9.999000000000000000e+03 -9.999000000000000000e+03 -9.999000000000000000e+03 -9.999000000000000000e+03 -9.999000000000000000e+03 -9.999000000000000000e+03 -9.999000000000000000e+03 -9.999000000000000000e+03 -9.999000000000000000e+03 -9.999000000000000000e+03 -9.999000000000000000e+03 -9.999000000000000000e+03 -9.999000000000000000e+03 -9.999000000000000000e+03 -9.999000000000000000e+03 -9.999000000000000000e+03 -9.999000000000000000e+03 -9.999000000000000000e+03
2.897884000000000242e+02 2.899834000000000174e+02 2.906324999999999932e+02 2.910790999999999826e+02 2.910760999999999967e+02 2.912058999999999855e+02 2.914334999999999809e+02 2.918777000000000044e+02 2.920079000000000065e+02 2.917785000000000082e+02 2.922250000000000227e+02 2.924492000000000189e+02 2.922837999999999852e+02 2.927509000000000015e+02 2.927397000000000276e+02 2.925921000000000163e+02 2.926569999999999823e+02 2.928650999999999840e+02 2.927816000000000258e+02 2.918802999999999770e+02 2.912586000000000013e+02 2.914617000000000075e+02 2.923356999999999744e+02 2.930566000000000031e+02 2.927217999999999734e+02 2.909141000000000190e+02 2.901159999999999854e+02 2.906739999999999782e+02 2.884080000000000155e+02 2.872472000000000207e+02 2.865738000000000056e+02 2.861345000000000027e+02 2.857144999999999868e+02 2.854103000000000065e+02 2.852991000000000099e+02 2.850984000000000265e+02 2.848509000000000242e+02 2.847946000000000026e+02 2.846720000000000255e+02 2.843901000000000181e+02 2.846057999999999879e+02 2.857520000000000095e+02 2.876902999999999793e+02 2.896247999999999934e+02 2.919080999999999904e+02 2.947946999999999775e+02 2.966508999999999787e+02 2.987746000000000208e+02 3.011227000000000089e+02 3.036639999999999873e+02 3.062599999999999909e+02 3.090368000000000279e+02 3.118256999999999834e+02 3.145280999999999949e+02 3.165310999999999808e+02 3.179635999999999854e+02 3.193555000000000064e+02 3.207436000000000149e+02 3.220346000000000117e+02 3.233491000000000213e+02 3.247617999999999938e+02 3.259938999999999965e+02 3.272853999999999814e+02 3.288270999999999731e+02 3.303378999999999905e+02 3.319100000000000250e+02 3.333310000000000173e+02 3.344119000000000028e+02 3.350258000000000038e+02 3.356352999999999724e+02 3.364683999999999742e+02 3.376046000000000049e+02 3.387400999999999840e+02 3.401032999999999902e+02 3.417384000000000128e+02 3.431166000000000054e+02 3.440566000000000031e+02 3.446333999999999946e+02 3.451621000000000095e+02 3.456662000000000035e+02 3.462803000000000111e+02 3.470375000000000227e+02 3.476945999999999799e+02 3.483373000000000275e+02 3.491460000000000150e+02 3.495502000000000180e+02 3.496193999999999846e+02 3.495788999999999760e+02 3.493213999999999828e+02 3.488827999999999747e+02 3.486252000000000066e+02 3.485550999999999817e+02 3.485803999999999974e+02 3.485794000000000210e+02 3.486123999999999796e+02 3.485582999999999743e+02 -9.999000000000000000e+03 -9.999000000000000000e+03 -9.999000000000000000e+03 -9.999000000000000000e+03 -9.999000000000000000e+03 -9.999000000000000000e+03 -9.999000000000000000e+03 -9.999000000000000000e+03 -9.999000000000000000e+03 -9.999000000000000000e+03 -9.999000000000000000e+03 -9.999000000000000000e+03 -9.999000000000000000e+03 -9.999000000000000000e+03 -9.999000000000000000e+03 -9.999000000000000000e+03 -9.999000000000000000e+03 -9.999000000000000000e+03 -9.999000000000000000e+03 -9.999000000000000000e+03
2.902509000000000015e+02 2.904750000000000227e+02 2.910491999999999848e+02 2.914832999999999856e+02 2.915656000000000176e+02 2.916947000000000116e+02 2.919440000000000168e+02 2.922330999999999790e+02 2.924137999999999806e+02 2.927502000000000066e+02 2.939073000000000206e+02 2.933772999999999911e+02 2.928535999999999717e+02 2.933217000000000212e+02 2.932126999999999839e+02 2.928605999999999767e+02 2.930332000000000221e+02 2.936845000000000141e+02 2.935473999999999819e+02 2.926016000000000190e+02 2.916741999999999848e+02 2.916843999999999824e+02 2.928546999999999798e+02 2.943686000000000149e+02 2.946003999999999792e+02 2.929997000000000185e+02 2.923256999999999834e+02 2.915681999999999903e+02 2.887139999999999986e+02 2.875013000000000147e+02 2.870407000000000153e+02 2.866662999999999784e+02 2.862868000000000279e+02 2.858208000000000197e+02 2.855767000000000166e+02 2.854436000000000035e+02 2.851125999999999863e+02 2.849934000000000083e+02 2.849805000000000064e+02 2.848487999999999829e+02 2.849721000000000117e+02 2.856743000000000166e+02 2.873675000000000068e+02 2.896725000000000136e+02 2.919445999999999799e+02 2.952153000000000134e+02 2.972742999999999824e+02 2.989873000000000047e+02 3.013731000000000222e+02 3.039549999999999841e+02 3.065136999999999716e+02 3.090489000000000033e+02 3.114834000000000174e+02 3.139562999999999988e+02 3.162142000000000053e+02 3.181972000000000094e+02 3.199739000000000146e+02 3.213618000000000166e+02 3.226669999999999732e+02 3.239943999999999846e+02 3.252941999999999894e+02 3.265593000000000075e+02 3.279519999999999982e+02 3.294825999999999908e+02 3.308955000000000268e+02 3.322644000000000233e+02 3.336292000000000257e+02 3.346177000000000135e+02 3.352293000000000234e+02 3.358109999999999786e+02 3.366143999999999892e+02 3.376587999999999852e+02 3.387767999999999802e+02 3.401918999999999755e+02 3.419048000000000229e+02 3.431365999999999872e+02 3.439888000000000261e+02 3.446270999999999844e+02 3.452108000000000061e+02 3.455788000000000011e+02 3.460903999999999883e+02 3.467185999999999808e+02 3.472074000000000069e+02 3.480099000000000160e+02 3.488978000000000179e+02 3.492311000000000263e+02 3.493763000000000147e+02 3.495128000000000270e+02 3.492925999999999931e+02 3.487762000000000171e+02 3.484755000000000109e+02 3.483688000000000216e+02 3.484363000000000170e+02 3.484232000000000085e+02 3.484193000000000211e+02 3.484778000000000020e+02 3.486677999999999997e+02 -9.999000000000000000e+03 -9.999000000000000000e+03 -9.999000000000000000e+03 -9.999000000000000000e+03 -9.999000000000000000e+03 -9.999000000000000000e+03 -9.999000000000000000e+03 -9.999000000000000000e+03 -9.999000000000000000e+03 -9.999000000000000000e+03 -9.999000000000000000e+03 -9.999000000000000000e+03 -9.999000000000000000e+03 -9.999000000000000000e+03 -9.999000000000000000e+03 -9.999000000000000000e+03 -9.999000000000000000e+03 -9.999000000000000000e+03 -9.999000000000000000e+03
2.907185999999999808e+02 2.909547999999999774e+02 2.914146000000000072e+02 2.918127000000000066e+02 2.920273000000000252e+02 2.922570999999999799e+02 2.924413000000000125e+02 2.926528000000000134e+02 2.929062999999999874e+02 2.939884999999999877e+02 2.945221000000000231e+02 2.935212000000000216e+02 2.936206000000000245e+02 2.942332000000000107e+02 2.936977999999999724e+02 2.929791999999999916e+02 2.935735999999999990e+02 2.942307999999999879e+02 2.938507999999999925e+02 2.931940999999999917e+02 2.921859999999999786e+02 2.919932999999999765e+02 2.934397999999999911e+02 2.954583000000000084e+02 2.956218000000000075e+02 2.947764999999999986e+02 2.943940000000000055e+02 2.921847999999999956e+02 2.891059999999999945e+02 2.880548000000000002e+02 2.878210000000000264e+02 2.876383000000000152e+02 2.873235999999999990e+02 2.867746999999999957e+02 2.862244000000000028e+02 2.861059999999999945e+02 2.857346000000000004e+02 2.852896999999999821e+02 2.852597000000000094e+02 2.852384999999999877e+02 2.852882000000000176e+02 2.857556000000000154e+02 2.869721000000000117e+02 2.892821000000000140e+02 2.919037999999999897e+02 2.954827999999999975e+02 2.974245000000000232e+02 2.989918000000000120e+02 3.014563999999999737e+02 3.041299000000000206e+02 3.067490999999999985e+02 3.091677000000000248e+02 3.114608000000000061e+02 3.137167000000000030e+02 3.158784999999999741e+02 3.181351999999999975e+02 3.203163000000000125e+02 3.218899000000000115e+02 3.231836000000000126e+02 3.244547000000000025e+02 3.256933000000000220e+02 3.270812999999999988e+02 3.286997999999999820e+02 3.302595999999999776e+02 3.315129999999999768e+02 3.327613999999999805e+02 3.339879999999999995e+02 3.349014999999999986e+02 3.355778999999999996e+02 3.362452000000000112e+02 3.369148000000000138e+02 3.379769999999999754e+02 3.391519999999999868e+02 3.404902999999999906e+02 3.419386000000000081e+02 3.430280999999999949e+02 3.438716000000000008e+02 3.445441999999999894e+02 3.451064999999999827e+02 3.454245000000000232e+02 3.458106999999999971e+02 3.462062999999999988e+02 3.467441999999999780e+02 3.476884999999999764e+02 3.484596999999999980e+02 3.486292000000000257e+02 3.489852000000000203e+02 3.493899000000000115e+02 3.491524000000000001e+02 3.485948999999999955e+02 3.482475000000000023e+02 3.481634999999999991e+02 3.481822000000000230e+02 3.481852000000000089e+02 3.482411000000000172e+02 3.486263000000000147e+02 3.490158000000000129e+02 -9.999000000000000000e+03 -9.999000000000000000e+03 -9.999000000000000000e+03 -9.999000000000000000e+03 -9.999000000000000000e+03 -9.999000000000000000e+03 -9.999000000000000000e+03 -9.999000000000000000e+03 -9.999000000000000000e+03 -9.999000000000000000e+03 -9.999000000000000000e+03 -9.999000000000000000e+03 -9.999000000000000000e+03 -9.999000000000000000e+03 -9.999000000000000000e+03 -9.999000000000000000e+03 -9.999000000000000000e+03 -9.999000000000000000e+03 -9.999000000000000000e+03
-9.999000000000000000e+03 2.913992000000000075e+02 2.918376000000000090e+02 2.921838999999999942e+02 2.923428000000000111e+02 2.925860000000000127e+02 2.927864000000000146e+02 2.930898000000000252e+02 2.934803999999999746e+02 2.948643999999999892e+02 2.945702999999999747e+02 2.940520999999999958e+02 2.945110999999999990e+02 2.950593000000000075e+02 2.942423000000000002e+02 2.932176999999999794e+02 2.939021999999999935e+02 2.945871999999999957e+02 2.944490999999999872e+02 2.936530999999999949e+02 2.927309999999999945e+02 2.927071000000000254e+02 2.943272999999999797e+02 2.959397999999999911e+02 2.953181000000000154e+02 2.949313999999999965e+02 2.953421000000000163e+02 2.926499999999999773e+02 2.897887999999999806e+02 2.887678999999999974e+02 2.886659999999999968e+02 2.885964000000000169e+02 2.884146000000000072e+02 2.879125999999999976e+02 2.871261000000000081e+02 2.868184999999999718e+02 2.865459000000000174e+02 2.858686999999999898e+02 2.856147000000000276e+02 2.856644000000000005e+02 2.856394999999999982e+02 2.859202000000000226e+02 2.866797000000000253e+02 2.885704000000000065e+02 2.915378000000000043e+02 2.956336999999999762e+02 2.976245000000000118e+02 2.992121999999999957e+02 3.017013999999999783e+02 3.042803999999999860e+02 3.067604999999999791e+02 3.092590000000000146e+02 3.116329999999999814e+02 3.138174999999999955e+02 3.158878000000000270e+02 3.180674000000000206e+02 3.202427000000000135e+02 3.220423000000000116e+02 3.234413000000000125e+02 3.246583999999999719e+02 3.258294999999999959e+02 3.273124000000000251e+02 3.290262000000000171e+02 3.307103000000000179e+02 3.320980000000000132e+02 3.332855000000000132e+02 3.343575000000000159e+02 3.351732999999999834e+02 3.359159000000000219e+02 3.367026000000000181e+02 3.373700999999999794e+02 3.382730999999999995e+02 3.393376999999999839e+02 3.406032000000000153e+02 3.417171999999999912e+02 3.427692999999999870e+02 3.436977999999999724e+02 3.444221000000000004e+02 3.449601000000000113e+02 3.452049999999999841e+02 3.454880999999999744e+02 3.458251000000000204e+02 3.464044000000000096e+02 3.470554000000000201e+02 3.475842000000000098e+02 3.479397000000000162e+02 3.485178000000000225e+02 3.489839000000000055e+02 3.486800999999999817e+02 3.481775000000000091e+02 3.479173000000000116e+02 3.478072999999999979e+02 3.478919000000000210e+02 3.479202999999999975e+02 3.481555000000000177e+02 3.487599000000000160e+02 3.491870000000000118e+02 -9.999000000000000000e+03 -9.999000000000000000e+03 -9.999000000000000000e+03 -9.999000000000000000e+03 -9.999000000000000000e+03 -9.999000000000000000e+03 -9.999000000000000000e+03 -9.999000000000000000e+03 -9.999000000000000000e+03 -9.999000000000000000e+03 -9.999000000000000000e+03 -9.999000000000000000e+03 -9.999000000000000000e+03 -9.999000000000000000e+03 -9.999000000000000000e+03 -9.999000000000000000e+03 -9.999000000000000000e+03 -9.999000000000000000e+03 -9.999000000000000000e+03
-9.999000000000000000e+03 -9.999000000000000000e+03 2.922595999999999776e+02 2.926462000000000216e+02 2.927932000000000130e+02 2.929825000000000159e+02 2.931541000000000281e+02 2.934918999999999869e+02 2.942142000000000053e+02 2.953727000000000089e+02 2.946809999999999832e+02 2.946655999999999835e+02 2.952280000000000086e+02 2.956207999999999743e+02 2.950539999999999736e+02 2.939205000000000041e+02 2.942038000000000011e+02 2.950776000000000181e+02 2.952927999999999997e+02 2.942488999999999919e+02 2.934621999999999957e+02 2.938471000000000117e+02 2.950000000000000000e+02 2.953419000000000096e+02 2.947266000000000190e+02 2.947266000000000190e+02 2.951813999999999965e+02 2.925846999999999980e+02 2.905697999999999865e+02 2.895292999999999779e+02 2.892708000000000084e+02 2.889965000000000259e+02 2.890298000000000229e+02 2.887273999999999887e+02 2.879560999999999922e+02 2.873743000000000052e+02 2.871705999999999790e+02 2.866924999999999955e+02 2.861315999999999917e+02 2.861374999999999886e+02 2.860790000000000077e+02 2.861494999999999891e+02 2.865000000000000000e+02 2.879332999999999743e+02 2.911478999999999928e+02 2.955781999999999812e+02 2.979757999999999925e+02 2.996138000000000261e+02 3.019105000000000132e+02 3.043564999999999827e+02 3.066177999999999884e+02 3.091788000000000238e+02 3.116714999999999804e+02 3.138315999999999804e+02 3.159071000000000140e+02 3.179963000000000193e+02 3.200855000000000246e+02 3.218784999999999741e+02 3.234069999999999823e+02 3.248885000000000218e+02 3.261399000000000115e+02 3.275461999999999989e+02 3.291657000000000153e+02 3.308023999999999774e+02 3.322189999999999941e+02 3.334952000000000112e+02 3.346381999999999834e+02 3.354877999999999929e+02 3.363775999999999726e+02 3.371120999999999981e+02 3.377176999999999794e+02 3.384549000000000092e+02 3.393331999999999766e+02 3.403496999999999844e+02 3.413167000000000257e+02 3.423770000000000095e+02 3.434438999999999851e+02 3.442551000000000272e+02 3.447823000000000206e+02 3.449472999999999843e+02 3.451388000000000034e+02 3.455715000000000146e+02 3.461150999999999840e+02 3.465102999999999724e+02 3.468716000000000008e+02 3.472574000000000183e+02 3.478258999999999901e+02 3.481791999999999803e+02 3.478586999999999989e+02 3.475690000000000168e+02 3.474297000000000253e+02 3.473142000000000280e+02 3.475955999999999904e+02 3.477257999999999925e+02 3.481451999999999884e+02 3.489177000000000248e+02 3.495136999999999716e+02 -9.999000000000000000e+03 -9.999000000000000000e+03 -9.999000000000000000e+03 -9.999000000000000000e+03 -9.999000000000000000e+03 -9.999000000000000000e+03 -9.999000000000000000e+03 -9.999000000000000000e+03 -9.999000000000000000e+03 -9.999000000000000000e+03 -9.999000000000000000e+03 -9.999000000000000000e+03 -9.999000000000000000e+03 -9.999000000000000000e+03 -9.999000000000000000e+03 -9.999000000000000000e+03 -9.999000000000000000e+03 -9.999000000000000000e+03 -9.999000000000000000e+03
-9.999000000000000000e+03 -9.999000000000000000e+03 -9.999000000000000000e+03 2.931130999999999744e+02 2.933858000000000175e+02 2.935966000000000236e+02 2.937106999999999744e+02 2.939139999999999873e+02 2.950265999999999735e+02 2.953322000000000003e+02 2.948885999999999967e+02 2.951825999999999794e+02 2.957074999999999818e+02 2.961492000000000075e+02 2.961304999999999836e+02 2.956000000000000227e+02 2.957004999999999768e+02 2.962653999999999996e+02 2.964913000000000238e+02 2.954796999999999798e+02 2.949995000000000118e+02 2.950575999999999794e+02 2.950267000000000053e+02 2.949393999999999778e+02 2.947266000000000190e+02 2.949141999999999939e+02 2.947266000000000190e+02 2.925803000000000225e+02 2.911372000000000071e+02 2.903494999999999777e+02 2.899153000000000020e+02 2.893620000000000232e+02 2.891915999999999940e+02 2.889990000000000236e+02 2.883725000000000023e+02 2.879777000000000271e+02 2.875600000000000023e+02 2.873097000000000207e+02 2.867579999999999814e+02 2.865819000000000187e+02 2.865543999999999869e+02 2.865373000000000161e+02 2.866739999999999782e+02 2.877808999999999742e+02 2.910645999999999844e+02 2.957970000000000255e+02 2.983428999999999860e+02 2.999227999999999952e+02 3.021202999999999861e+02 3.045262000000000171e+02 3.065418000000000234e+02 3.089963000000000193e+02 3.114791000000000167e+02 3.136250000000000000e+02 3.157525999999999726e+02 3.178344000000000165e+02 3.198503000000000043e+02 3.215437000000000012e+02 3.231374000000000137e+02 3.248496000000000095e+02 3.263838999999999828e+02 3.277846999999999866e+02 3.293231999999999857e+02 3.307619000000000256e+02 3.321877000000000066e+02 3.337468999999999824e+02 3.350337000000000103e+02 3.359209000000000174e+02 3.366689999999999827e+02 3.372402999999999906e+02 3.378247999999999820e+02 3.385088999999999828e+02 3.392332000000000107e+02 3.399990000000000236e+02 3.408591000000000122e+02 3.418754999999999882e+02 3.429651999999999816e+02 3.438770000000000095e+02 3.444153000000000020e+02 3.446193999999999846e+02 3.449076999999999771e+02 3.453317000000000121e+02 3.457914000000000101e+02 3.461087999999999738e+02 3.464114999999999895e+02 3.466469000000000165e+02 3.470049999999999955e+02 3.471553000000000111e+02 3.469017999999999802e+02 3.468580999999999790e+02 3.467936000000000263e+02 3.467162000000000148e+02 3.471460000000000150e+02 3.474696999999999889e+02 3.480323000000000206e+02 3.490776000000000181e+02 3.498281999999999812e+02 -9.999000000000000000e+03 -9.999000000000000000e+03 -9.999000000000000000e+03 -9.999000000000000000e+03 -9.999000000000000000e+03 -9.999000000000000000e+03 -9.999000000000000000e+03 -9.999000000000000000e+03 -9.999000000000000000e+03 -9.999000000000000000e+03 -9.999000000000000000e+03 -9.999000000000000000e+03 -9.999000000000000000e+03 -9.999000000000000000e+03 -9.999000000000000000e+03 -9.999000000000000000e+03 -9.999000000000000000e+03 -9.999000000000000000e+03 -9.999000000000000000e+03
-9.999000000000000000e+03 -9.999000000000000000e+03 -9.999000000000000000e+03 -9.999000000000000000e+03 2.940253999999999905e+02 2.942957000000000107e+02 2.944191999999999894e+02 2.944972000000000207e+02 2.955674999999999955e+02 2.955045000000000073e+02 2.953523999999999887e+02 2.955844000000000165e+02 2.961147000000000276e+02 2.966866999999999734e+02 2.968607000000000085e+02 2.974379999999999882e+02 2.973795000000000073e+02 2.977957000000000107e+02 2.986102999999999952e+02 2.979048999999999978e+02 2.965654999999999859e+02 2.957810000000000059e+02 2.953990000000000009e+02 2.955013999999999896e+02 2.951809999999999832e+02 2.951714999999999804e+02 2.942855000000000132e+02 2.926822999999999979e+02 2.914986000000000104e+02 2.911639000000000124e+02 2.906972000000000094e+02 2.898312999999999988e+02 2.893213999999999828e+02 2.889807000000000130e+02 2.887191000000000258e+02 2.887357000000000085e+02 2.880898000000000252e+02 2.877973999999999819e+02 2.873759000000000015e+02 2.870154999999999745e+02 2.869698000000000206e+02 2.869381000000000199e+02 2.870097999999999843e+02 2.879511999999999716e+02 2.905473000000000070e+02 2.949748000000000161e+02 2.983152999999999793e+02 3.000085000000000264e+02 3.022801999999999794e+02 3.043351000000000113e+02 3.064531999999999812e+02 3.087479999999999905e+02 3.112475000000000023e+02 3.134166999999999916e+02 3.155269000000000119e+02 3.177264000000000124e+02 3.198213000000000079e+02 3.215609000000000037e+02 3.232080000000000268e+02 3.249495000000000005e+02 3.265792999999999893e+02 3.282624000000000137e+02 3.297862000000000080e+02 3.311530999999999949e+02 3.326100000000000136e+02 3.341866999999999734e+02 3.353835000000000264e+02 3.362137999999999920e+02 3.369060000000000059e+02 3.373476999999999748e+02 3.378364000000000260e+02 3.384243000000000166e+02 3.389719999999999800e+02 3.395969000000000051e+02 3.404182000000000130e+02 3.412755000000000223e+02 3.422805000000000177e+02 3.432180999999999926e+02 3.438319999999999936e+02 3.441653000000000020e+02 3.445930000000000177e+02 3.449823999999999842e+02 3.453213999999999828e+02 3.455830000000000268e+02 3.458758000000000266e+02 3.460788999999999760e+02 3.462133000000000038e+02 3.461947999999999865e+02 3.460683000000000220e+02 3.461607000000000198e+02 3.462183999999999742e+02 3.463641000000000076e+02 3.468183999999999969e+02 3.471098999999999819e+02 3.479639999999999986e+02 3.492216999999999985e+02 3.500659999999999741e+02 -9.999000000000000000e+03 -9.999000000000000000e+03 -9.999000000000000000e+03 -9.999000000000000000e+03 -9.999000000000000000e+03 -9.999000000000000000e+03 -9.999000000000000000e+03 -9.999000000000000000e+03 -9.999000000000000000e+03 -9.999000000000000000e+03 -9.999000000000000000e+03 -9.999000000000000000e+03 -9.999000000000000000e+03 -9.999000000000000000e+03 -9.999000000000000000e+03 -9.999000000000000000e+03 -9.999000000000000000e+03 -9.999000000000000000e+03 -9.999000000000000000e+03
-9.999000000000000000e+03 -9.999000000000000000e+03 -9.999000000000000000e+03 -9.999000000000000000e+03 -9.999000000000000000e+03 2.949893999999999892e+02 2.951548000000000229e+02 2.952178000000000111e+02 2.959950000000000045e+02 2.959791000000000167e+02 2.960661999999999807e+02 2.962330000000000041e+02 2.966397999999999797e+02 2.970355999999999881e+02 2.975865999999999758e+02 2.982991999999999848e+02 2.984782999999999902e+02 3.001301000000000272e+02 3.013722999999999956e+02 2.998804999999999836e+02 2.975557000000000016e+02 2.965742000000000189e+02 2.963426999999999794e+02 2.962848999999999933e+02 2.951800999999999817e+02 2.948861999999999739e+02 2.944793000000000234e+02 2.931290000000000191e+02 2.921533000000000015e+02 2.919612000000000194e+02 2.915597000000000207e+02 2.904700000000000273e+02 2.898254999999999768e+02 2.893899000000000115e+02 2.893360000000000127e+02 2.895430999999999813e+02 2.888292000000000144e+02 2.881114999999999782e+02 2.878543999999999983e+02 2.874542999999999893e+02 2.873038999999999987e+02 2.872200000000000273e+02 2.872730000000000246e+02 2.881592999999999734e+02 2.904660999999999831e+02 2.944708999999999719e+02 2.981875999999999749e+02 3.002477000000000089e+02 3.023097999999999956e+02 3.040713000000000079e+02 3.063285000000000196e+02 3.085871000000000208e+02 3.109637000000000171e+02 3.131485999999999876e+02 3.152873999999999910e+02 3.176721999999999753e+02 3.199080999999999904e+02 3.216370999999999754e+02 3.232708000000000084e+02 3.250312999999999874e+02 3.268093999999999824e+02 3.285591000000000008e+02 3.300572000000000230e+02 3.315054000000000087e+02 3.330998000000000161e+02 3.346089000000000055e+02 3.355833999999999833e+02 3.363285000000000196e+02 3.369495999999999754e+02 3.374119999999999777e+02 3.377909999999999968e+02 3.381818999999999846e+02 3.385984000000000265e+02 3.391431999999999789e+02 3.398351999999999862e+02 3.405627999999999815e+02 3.415373000000000161e+02 3.424572999999999752e+02 3.430837999999999965e+02 3.435563999999999965e+02 3.441048000000000116e+02 3.444203999999999724e+02 3.446639999999999873e+02 3.449522999999999797e+02 3.452481999999999971e+02 3.454293000000000120e+02 3.454886999999999944e+02 3.454995999999999867e+02 3.454941000000000031e+02 3.454159999999999968e+02 3.456399000000000115e+02 3.460645000000000095e+02 3.465720999999999776e+02 3.470240999999999758e+02 3.480797000000000025e+02 3.493552999999999997e+02 3.501481999999999744e+02 3.505169999999999959e+02 -9.999000000000000000e+03 -9.999000000000000000e+03 -9.999000000000000000e+03 -9.999000000000000000e+03 -9.999000000000000000e+03 -9.999000000000000000e+03 -9.999000000000000000e+03 -9.999000000000000000e+03 -9.999000000000000000e+03 -9.999000000000000000e+03 -9.999000000000000000e+03 -9.999000000000000000e+03 -9.999000000000000000e+03 -9.999000000000000000e+03 -9.999000000000000000e+03 -9.999000000000000000e+03 -9.999000000000000000e+03 -9.999000000000000000e+03
-9.999000000000000000e+03 -9.999000000000000000e+03 -9.999000000000000000e+03 -9.999000000000000000e+03 -9.999000000000000000e+03 2.957232999999999947e+02 2.958815999999999917e+02 2.959802999999999997e+02 2.965996999999999844e+02 2.964911000000000172e+02 2.966711000000000240e+02 2.969245000000000232e+02 2.970935999999999808e+02 2.975647000000000162e+02 2.983792000000000257e+02 2.992382000000000062e+02 3.002393000000000143e+02 3.014859999999999900e+02 3.012678000000000225e+02 2.994006999999999721e+02 2.977323000000000093e+02 2.975744000000000256e+02 2.973908000000000129e+02 2.971963999999999828e+02 2.961356000000000108e+02 2.958414999999999964e+02 2.953541999999999916e+02 2.939952000000000112e+02 2.929553999999999974e+02 2.928294000000000210e+02 2.923627999999999929e+02 2.913163999999999874e+02 2.908215999999999894e+02 2.901841000000000008e+02 2.899755000000000109e+02 2.901311999999999784e+02 2.896218999999999824e+02 2.886716999999999871e+02 2.881847000000000207e+02 2.879098000000000184e+02 2.876161000000000172e+02 2.874751999999999725e+02 2.875264999999999986e+02 2.885086000000000013e+02 2.911442999999999870e+02 2.947203999999999837e+02 2.980711999999999762e+02 3.003052999999999884e+02 3.023613000000000284e+02 3.038922999999999774e+02 3.061530000000000200e+02 3.083992000000000075e+02 3.106322000000000116e+02 3.128956999999999766e+02 3.150699999999999932e+02 3.174495000000000005e+02 3.198245999999999754e+02 3.217717999999999847e+02 3.234272000000000276e+02 3.251175999999999817e+02 3.269375999999999749e+02 3.284485999999999990e+02 3.297968000000000188e+02 3.315140000000000100e+02 3.333602000000000203e+02 3.347382999999999811e+02 3.355414000000000101e+02 3.362323000000000093e+02 3.367884999999999991e+02 3.372844999999999800e+02 3.376938000000000102e+02 3.379732000000000198e+02 3.382692999999999870e+02 3.386494999999999891e+02 3.391607999999999947e+02 3.398582000000000107e+02 3.407873000000000161e+02 3.416433000000000106e+02 3.422561000000000035e+02 3.428756000000000199e+02 3.434639000000000237e+02 3.436967000000000212e+02 3.439039000000000215e+02 3.442771000000000186e+02 3.446120999999999981e+02 3.448227999999999724e+02 3.449193000000000211e+02 3.449832000000000107e+02 3.450020000000000095e+02 3.447189000000000192e+02 3.450593000000000075e+02 3.456096000000000004e+02 3.461793000000000120e+02 3.468817000000000235e+02 3.482459000000000060e+02 3.494186000000000263e+02 3.500029000000000110e+02 3.504905999999999722e+02 -9.999000000000000000e+03 -9.999000000000000000e+03 -9.999000000000000000e+03 -9.999000000000000000e+03 -9.999000000000000000e+03 -9.999000000000000000e+03 -9.999000000000000000e+03 -9.999000000000000000e+03 -9.999000000000000000e+03 -9.999000000000000000e+03 -9.999000000000000000e+03 -9.999000000000000000e+03 -9.999000000000000000e+03 -9.999000000000000000e+03 -9.999000000000000000e+03 -9.999000000000000000e+03 -9.999000000000000000e+03 -9.999000000000000000e+03
-9.999000000000000000e+03 -9.999000000000000000e+03 -9.999000000000000000e+03 -9.999000000000000000e+03 -9.999000000000000000e+03 -9.999000000000000000e+03 2.963747999999999934e+02 2.965828999999999951e+02 2.970853999999999928e+02 2.968734999999999786e+02 2.971711999999999989e+02 2.976256000000000199e+02 2.977094000000000165e+02 2.981209000000000060e+02 2.995822999999999752e+02 3.008086999999999875e+02 3.002037000000000262e+02 3.002226999999999748e+02 2.999284999999999854e+02 2.989191000000000145e+02 2.982169000000000096e+02 2.983867000000000189e+02 2.984877999999999929e+02 2.981381999999999834e+02 2.970536000000000172e+02 2.969773999999999887e+02 2.967028000000000247e+02 2.950480999999999767e+02 2.938048000000000002e+02 2.936743000000000166e+02 2.932486999999999853e+02 2.923188000000000102e+02 2.920233000000000061e+02 2.914868000000000166e+02 2.908181000000000154e+02 2.908426999999999794e+02 2.903154999999999859e+02 2.893528999999999769e+02 2.886234000000000037e+02 2.882862999999999829e+02 2.880183000000000106e+02 2.877753000000000156e+02 2.878541999999999916e+02 2.890077999999999747e+02 2.920215999999999781e+02 2.949626999999999839e+02 2.978926999999999907e+02 3.000686000000000035e+02 3.021392999999999915e+02 3.040690999999999917e+02 3.060398999999999887e+02 3.079537000000000262e+02 3.102029999999999745e+02 3.126265000000000214e+02 3.147850999999999999e+02 3.170126999999999953e+02 3.193208999999999946e+02 3.216598000000000184e+02 3.234979999999999905e+02 3.251164999999999736e+02 3.267259999999999991e+02 3.280702999999999747e+02 3.295842000000000098e+02 3.314968999999999824e+02 3.333480000000000132e+02 3.345065999999999917e+02 3.352119000000000142e+02 3.358423999999999978e+02 3.363926000000000158e+02 3.369739000000000146e+02 3.374483000000000175e+02 3.378240999999999872e+02 3.381007999999999925e+02 3.382364000000000033e+02 3.385095000000000027e+02 3.390860000000000127e+02 3.399368999999999801e+02 3.407339000000000055e+02 3.413582000000000107e+02 3.421152999999999906e+02 3.426610000000000014e+02 3.428883999999999901e+02 3.431841999999999757e+02 3.436467000000000098e+02 3.440224000000000046e+02 3.443235999999999990e+02 3.444698000000000206e+02 3.445333999999999719e+02 3.447017000000000166e+02 3.444264999999999759e+02 3.446460999999999899e+02 3.451462000000000216e+02 3.456772000000000276e+02 3.466293000000000006e+02 3.481358999999999924e+02 3.491161999999999921e+02 3.496537000000000148e+02 3.501515999999999735e+02 3.503910000000000196e+02 -9.999000000000000000e+03 -9.999000000000000000e+03 -9.999000000000000000e+03 -9.999000000000000000e+03 -9.999000000000000000e+03 -9.999000000000000000e+03 -9.999000000000000000e+03 -9.999000000000000000e+03 -9.999000000000000000e+03 -9.999000000000000000e+03 -9.999000000000000000e+03 -9.999000000000000000e+03 -9.999000000000000000e+03 -9.999000000000000000e+03 -9.999000000000000000e+03 -9.999000000000000000e+03 -9.999000000000000000e+03
-9.999000000000000000e+03 -9.999000000000000000e+03 -9.999000000000000000e+03 -9.999000000000000000e+03 -9.999000000000000000e+03 -9.999000000000000000e+03 2.966422000000000025e+02 2.969474000000000160e+02 2.974211999999999989e+02 2.973333999999999833e+02 2.979078000000000088e+02 2.982559999999999718e+02 2.980307999999999993e+02 2.986720000000000255e+02 3.007123000000000275e+02 3.006317000000000235e+02 2.998897000000000048e+02 2.998897000000000048e+02 2.997411000000000172e+02 2.993706999999999994e+02 2.990368000000000279e+02 2.992844000000000051e+02 2.997298000000000116e+02 2.993917999999999893e+02 2.982427000000000135e+02 2.977543999999999755e+02 2.974277999999999906e+02 2.959023000000000252e+02 2.946032999999999902e+02 2.944746000000000095e+02 2.940138000000000034e+02 2.930049999999999955e+02 2.926288000000000125e+02 2.923618999999999915e+02 2.915924999999999727e+02 2.911263999999999896e+02 2.906023999999999887e+02 2.898317999999999870e+02 2.890944000000000074e+02 2.886229999999999905e+02 2.884698000000000206e+02 2.883528000000000020e+02 2.885056000000000154e+02 2.898496000000000095e+02 2.926352999999999724e+02 2.951361999999999739e+02 2.977221999999999866e+02 2.998014999999999759e+02 3.017961000000000240e+02 3.040208999999999833e+02 3.056904999999999859e+02 3.075636000000000081e+02 3.098263000000000034e+02 3.120978000000000065e+02 3.143815000000000168e+02 3.165665000000000191e+02 3.187731999999999744e+02 3.210932000000000244e+02 3.229644000000000119e+02 3.245867000000000075e+02 3.263084999999999809e+02 3.280427000000000248e+02 3.297457999999999743e+02 3.313847000000000094e+02 3.328061000000000149e+02 3.337448999999999728e+02 3.345307000000000244e+02 3.351863000000000170e+02 3.358210000000000264e+02 3.364784999999999968e+02 3.370088999999999828e+02 3.375077999999999747e+02 3.377878000000000043e+02 3.377837999999999852e+02 3.378312000000000239e+02 3.382402999999999906e+02 3.389746000000000095e+02 3.397484000000000037e+02 3.404137999999999806e+02 3.412157000000000266e+02 3.417490000000000236e+02 3.421433000000000106e+02 3.425158000000000129e+02 3.430430000000000064e+02 3.434567999999999870e+02 3.437826999999999771e+02 3.440059999999999718e+02 3.439923000000000002e+02 3.440085000000000264e+02 3.441207999999999743e+02 3.445106999999999857e+02 3.448591999999999871e+02 3.454119000000000028e+02 3.463313999999999737e+02 3.476317999999999984e+02 3.485267999999999802e+02 3.490851999999999862e+02 3.495831000000000017e+02 -9.999000000000000000e+03 -9.999000000000000000e+03 -9.999000000000000000e+03 -9.999000000000000000e+03 -9.999000000000000000e+03 -9.999000000000000000e+03 -9.999000000000000000e+03 -9.999000000000000000e+03 -9.999000000000000000e+03 -9.999000000000000000e+03 -9.999000000000000000e+03 -9.999000000000000000e+03 -9.999000000000000000e+03 -9.999000000000000000e+03 -9.999000000000000000e+03 -9.999000000000000000e+03 -9.999000000000000000e+03 -9.999000000000000000e+03
-9.999000000000000000e+03 -9.999000000000000000e+03 -9.999000000000000000e+03 -9.999000000000000000e+03 -9.999000000000000000e+03 -9.999000000000000000e+03 2.971972000000000094e+02 2.975507999999999811e+02 2.978797000000000139e+02 2.978605000000000018e+02 2.983113000000000170e+02 2.985532999999999788e+02 2.984447999999999865e+02 2.997907999999999902e+02 3.008899999999999864e+02 3.003466000000000236e+02 3.002337999999999738e+02 3.002302000000000248e+02 3.001786000000000172e+02 3.002094000000000165e+02 2.997486999999999853e+02 3.000362999999999829e+02 3.004873999999999796e+02 3.003770000000000095e+02 2.992556000000000154e+02 2.986324000000000183e+02 2.984291999999999803e+02 2.969993000000000052e+02 2.955015999999999963e+02 2.950697000000000116e+02 2.944943999999999846e+02 2.934624999999999773e+02 2.930684999999999718e+02 2.928618000000000166e+02 2.923578999999999724e+02 2.917581000000000131e+02 2.911476999999999862e+02 2.904096000000000117e+02 2.896553999999999860e+02 2.891639999999999873e+02 2.890332000000000221e+02 2.888888999999999783e+02 2.892239999999999895e+02 2.906249000000000251e+02 2.929388999999999896e+02 2.950384000000000242e+02 2.969843000000000188e+02 2.993999000000000024e+02 3.015348000000000184e+02 3.038888000000000034e+02 3.053313999999999737e+02 3.071759999999999877e+02 3.092463999999999942e+02 3.114323999999999728e+02 3.138143000000000029e+02 3.158786999999999807e+02 3.179415999999999940e+02 3.201218000000000075e+02 3.219284999999999854e+02 3.236761999999999944e+02 3.256838000000000193e+02 3.276132999999999811e+02 3.290253000000000156e+02 3.304361999999999853e+02 3.316114999999999782e+02 3.326682000000000130e+02 3.337622999999999820e+02 3.344515000000000100e+02 3.352081999999999766e+02 3.359073999999999955e+02 3.364603999999999928e+02 3.370092000000000212e+02 3.372950999999999908e+02 3.372388000000000261e+02 3.370717000000000212e+02 3.372303999999999746e+02 3.378874999999999886e+02 3.387438999999999965e+02 3.395566000000000031e+02 3.403924999999999841e+02 3.409567999999999870e+02 3.414780999999999835e+02 3.418514000000000124e+02 3.423528000000000020e+02 3.428614999999999782e+02 3.432481000000000222e+02 3.434300000000000068e+02 3.433312999999999988e+02 3.431918999999999755e+02 3.436100000000000136e+02 3.443596999999999753e+02 3.449153999999999769e+02 3.454436999999999784e+02 3.462130000000000223e+02 3.470776999999999930e+02 3.477782000000000266e+02 3.484189000000000078e+02 -9.999000000000000000e+03 -9.999000000000000000e+03 -9.999000000000000000e+03 -9.999000000000000000e+03 -9.999000000000000000e+03 -9.999000000000000000e+03 -9.999000000000000000e+03 -9.999000000000000000e+03 -9.999000000000000000e+03 -9.999000000000000000e+03 -9.999000000000000000e+03 -9.999000000000000000e+03 -9.999000000000000000e+03 -9.999000000000000000e+03 -9.999000000000000000e+03 -9.999000000000000000e+03 -9.999000000000000000e+03 -9.999000000000000000e+03 -9.999000000000000000e+03
-9.999000000000000000e+03 -9.999000000000000000e+03 -9.999000000000000000e+03 -9.999000000000000000e+03 -9.999000000000000000e+03 -9.999000000000000000e+03 2.978647000000000276e+02 2.983301000000000158e+02 2.985095000000000027e+02 2.981909999999999741e+02 2.983636999999999944e+02 2.988414000000000215e+02 2.993711999999999875e+02 3.006422000000000025e+02 3.008765999999999963e+02 3.013290999999999826e+02 3.016032000000000153e+02 3.011062000000000012e+02 3.011378000000000270e+02 3.008897999999999797e+02 2.999014000000000237e+02 3.003312999999999988e+02 3.010179999999999723e+02 3.009463999999999828e+02 3.000924999999999727e+02 2.995006999999999948e+02 2.992468000000000075e+02 2.980749000000000137e+02 2.966306000000000154e+02 2.957398000000000025e+02 2.949318999999999846e+02 2.939485000000000241e+02 2.935844000000000165e+02 2.931748000000000047e+02 2.929071999999999889e+02 2.924456999999999880e+02 2.916370999999999754e+02 2.908684000000000083e+02 2.902418999999999869e+02 2.898507000000000176e+02 2.898027999999999906e+02 2.895165999999999826e+02 2.896544999999999845e+02 2.908913999999999760e+02 2.927665999999999826e+02 2.945004000000000133e+02 2.964209000000000174e+02 2.988786999999999807e+02 3.009603999999999928e+02 3.031064000000000078e+02 3.046508999999999787e+02 3.066284999999999741e+02 3.086472999999999729e+02 3.106947999999999865e+02 3.129651999999999816e+02 3.150427000000000248e+02 3.171252000000000066e+02 3.191422000000000025e+02 3.210106000000000108e+02 3.228256999999999834e+02 3.246843000000000075e+02 3.262208999999999719e+02 3.275051000000000272e+02 3.289623000000000275e+02 3.302937000000000012e+02 3.316795000000000186e+02 3.329107999999999947e+02 3.336727999999999952e+02 3.345672000000000139e+02 3.352054999999999723e+02 3.357778000000000134e+02 3.362645999999999731e+02 3.366184000000000083e+02 3.365889000000000237e+02 3.363376000000000090e+02 3.362869999999999777e+02 3.368398000000000252e+02 3.376818999999999846e+02 3.386487000000000194e+02 3.396519000000000119e+02 3.402576999999999998e+02 3.407799999999999727e+02 3.411687999999999761e+02 3.416632000000000176e+02 3.422187999999999874e+02 3.427031000000000063e+02 3.428347999999999729e+02 3.428184999999999718e+02 3.426338000000000079e+02 3.432441999999999780e+02 3.442801999999999794e+02 3.450074999999999932e+02 3.455015000000000214e+02 3.462019999999999982e+02 3.469986999999999853e+02 3.475579000000000178e+02 3.480097000000000094e+02 -9.999000000000000000e+03 -9.999000000000000000e+03 -9.999000000000000000e+03 -9.999000000000000000e+03 -9.999000000000000000e+03 -9.999000000000000000e+03 -9.999000000000000000e+03 -9.999000000000000000e+03 -9.999000000000000000e+03 -9.999000000000000000e+03 -9.999000000000000000e+03 -9.999000000000000000e+03 -9.999000000000000000e+03 -9.999000000000000000e+03 -9.999000000000000000e+03 -9.999000000000000000e+03 -9.999000000000000000e+03 -9.999000000000000000e+03 -9.999000000000000000e+03
-9.999000000000000000e+03 -9.999000000000000000e+03 -9.999000000000000000e+03 -9.999000000000000000e+03 -9.999000000000000000e+03 -9.999000000000000000e+03 2.984696999999999889e+02 2.992482999999999720e+02 2.994048999999999978e+02 2.987221999999999866e+02 2.989938999999999965e+02 2.995391999999999939e+02 2.998091999999999757e+02 3.011773999999999774e+02 3.020842000000000098e+02 3.023387999999999920e+02 3.020760999999999967e+02 3.017454000000000178e+02 3.015380999999999858e+02 3.005076999999999998e+02 2.999014000000000237e+02 3.004207000000000107e+02 3.012028999999999996e+02 3.014547000000000025e+02 3.009431999999999903e+02 3.006121999999999730e+02 3.000405999999999835e+02 2.989630999999999972e+02 2.976908999999999992e+02 2.965215000000000032e+02 2.956062000000000012e+02 2.946254000000000133e+02 2.941114999999999782e+02 2.936247999999999934e+02 2.932660999999999945e+02 2.928731000000000222e+02 2.921023000000000138e+02 2.914144999999999754e+02 2.908768999999999778e+02 2.905188999999999737e+02 2.903731000000000222e+02 2.899905999999999722e+02 2.899694000000000074e+02 2.908969000000000165e+02 2.923910000000000196e+02 2.944811000000000263e+02 2.963380000000000223e+02 2.983967000000000098e+02 3.003441000000000258e+02 3.023910000000000196e+02 3.039191999999999894e+02 3.057706999999999766e+02 3.080215000000000032e+02 3.100176000000000158e+02 3.120468000000000188e+02 3.141587000000000103e+02 3.161970999999999776e+02 3.182183999999999742e+02 3.200844000000000165e+02 3.220129999999999768e+02 3.237108999999999810e+02 3.247970000000000255e+02 3.260255999999999972e+02 3.273668999999999869e+02 3.288781000000000176e+02 3.305332999999999970e+02 3.317196000000000140e+02 3.327063999999999737e+02 3.336705000000000041e+02 3.343039999999999736e+02 3.349692000000000007e+02 3.354465000000000146e+02 3.358127000000000066e+02 3.357835000000000036e+02 3.355133999999999901e+02 3.354943999999999846e+02 3.359820000000000277e+02 3.367794000000000096e+02 3.376705999999999790e+02 3.386544999999999845e+02 3.395267000000000053e+02 3.400939000000000192e+02 3.404191999999999894e+02 3.410550999999999817e+02 3.417255999999999858e+02 3.420418999999999983e+02 3.421206999999999994e+02 3.420948999999999955e+02 3.421412000000000262e+02 3.429270999999999958e+02 3.440661000000000058e+02 3.449060000000000059e+02 3.453550000000000182e+02 3.460418000000000234e+02 3.468634999999999877e+02 3.474888000000000261e+02 3.478100999999999772e+02 -9.999000000000000000e+03 -9.999000000000000000e+03 -9.999000000000000000e+03 -9.999000000000000000e+03 -9.999000000000000000e+03 -9.999000000000000000e+03 -9.999000000000000000e+03 -9.999000000000000000e+03 -9.999000000000000000e+03 -9.999000000000000000e+03 -9.999000000000000000e+03 -9.999000000000000000e+03 -9.999000000000000000e+03 -9.999000000000000000e+03 -9.999000000000000000e+03 -9.999000000000000000e+03 -9.999000000000000000e+03 -9.999000000000000000e+03 -9.999000000000000000e+03
-9.999000000000000000e+03 -9.999000000000000000e+03 -9.999000000000000000e+03 -9.999000000000000000e+03 -9.999000000000000000e+03 -9.999000000000000000e+03 2.992371999999999730e+02 3.001514000000000237e+02 3.003025999999999840e+02 2.996763000000000261e+02 3.003313999999999737e+02 3.010831999999999766e+02 3.007153999999999883e+02 3.022968000000000188e+02 3.030645999999999844e+02 3.024402999999999793e+02 3.020255000000000223e+02 3.014873000000000047e+02 3.008219000000000278e+02 2.999014000000000237e+02 2.999134999999999991e+02 3.010355000000000132e+02 3.018931999999999789e+02 3.016496999999999957e+02 3.014433000000000220e+02 3.015190000000000055e+02 3.004024999999999750e+02 2.994295000000000186e+02 2.985462999999999738e+02 2.975296000000000163e+02 2.963946000000000254e+02 2.952638000000000034e+02 2.945312999999999874e+02 2.940008000000000266e+02 2.935586999999999875e+02 2.932767999999999802e+02 2.926662999999999784e+02 2.920364000000000146e+02 2.915101000000000226e+02 2.910085000000000264e+02 2.907789999999999964e+02 2.905296999999999912e+02 2.905120000000000005e+02 2.912837000000000103e+02 2.924576000000000136e+02 2.946514999999999986e+02 2.963552000000000248e+02 2.979173999999999864e+02 2.997776999999999816e+02 3.018147999999999911e+02 3.033310999999999922e+02 3.050432999999999879e+02 3.073682999999999765e+02 3.093002999999999929e+02 3.112293999999999983e+02 3.132984000000000151e+02 3.150951000000000022e+02 3.169533999999999878e+02 3.187051000000000158e+02 3.205457999999999856e+02 3.223876000000000204e+02 3.235384999999999991e+02 3.247212999999999852e+02 3.259191000000000145e+02 3.273797999999999888e+02 3.289057999999999993e+02 3.301121999999999730e+02 3.314852000000000203e+02 3.324442000000000235e+02 3.330801999999999907e+02 3.339280999999999722e+02 3.346220999999999890e+02 3.349680000000000177e+02 3.349590000000000032e+02 3.347819999999999823e+02 3.348870000000000005e+02 3.353256999999999834e+02 3.360409999999999968e+02 3.368048000000000002e+02 3.377638000000000034e+02 3.387203999999999837e+02 3.393303999999999974e+02 3.396345999999999776e+02 3.404610000000000127e+02 3.411831999999999994e+02 3.412567000000000235e+02 3.414522999999999797e+02 3.415042000000000257e+02 3.416136999999999944e+02 3.425437999999999761e+02 3.438279999999999745e+02 3.445808000000000106e+02 3.450296999999999912e+02 3.456806000000000267e+02 3.465387000000000057e+02 3.473249999999999886e+02 3.476637999999999806e+02 -9.999000000000000000e+03 -9.999000000000000000e+03 -9.999000000000000000e+03 -9.999000000000000000e+03 -9.999000000000000000e+03 -9.999000000000000000e+03 -9.999000000000000000e+03 -9.999000000000000000e+03 -9.999000000000000000e+03 -9.999000000000000000e+03 -9.999000000000000000e+03 -9.999000000000000000e+03 -9.999000000000000000e+03 -9.999000000000000000e+03 -9.999000000000000000e+03 -9.999000000000000000e+03 -9.999000000000000000e+03 -9.999000000000000000e+03 -9.999000000000000000e+03
-9.999000000000000000e+03 -9.999000000000000000e+03 -9.999000000000000000e+03 -9.999000000000000000e+03 -9.999000000000000000e+03 -9.999000000000000000e+03 3.000350000000000250e+02 3.007470000000000141e+02 3.009868000000000166e+02 3.005094000000000278e+02 3.007751999999999839e+02 3.025588000000000193e+02 3.025783999999999878e+02 3.034096999999999866e+02 3.039651999999999816e+02 3.030794000000000210e+02 3.023763000000000147e+02 3.014524999999999864e+02 2.999576999999999884e+02 2.999014999999999986e+02 3.004408999999999992e+02 3.017248999999999910e+02 3.021019000000000005e+02 3.014803999999999746e+02 3.019325000000000045e+02 3.022110999999999876e+02 3.008912000000000262e+02 2.998686999999999898e+02 2.992551000000000272e+02 2.985568999999999846e+02 2.974757999999999925e+02 2.960298999999999978e+02 2.950636999999999830e+02 2.943870999999999754e+02 2.939651000000000067e+02 2.938607000000000085e+02 2.932984000000000151e+02 2.925804999999999723e+02 2.920228000000000179e+02 2.914984999999999786e+02 2.912799999999999727e+02 2.910228000000000179e+02 2.909357999999999720e+02 2.915830000000000268e+02 2.927543000000000006e+02 2.946336999999999762e+02 2.962588999999999828e+02 2.975864000000000260e+02 2.993093000000000075e+02 3.012033000000000129e+02 3.026370999999999754e+02 3.043992999999999824e+02 3.064918000000000120e+02 3.083532999999999902e+02 3.102597000000000094e+02 3.121435999999999922e+02 3.139218999999999937e+02 3.155264999999999986e+02 3.170923000000000229e+02 3.184101999999999748e+02 3.201985999999999990e+02 3.218568000000000211e+02 3.231827000000000112e+02 3.242925999999999931e+02 3.257361999999999966e+02 3.271306999999999903e+02 3.283790000000000191e+02 3.298749000000000251e+02 3.309442000000000235e+02 3.317592999999999961e+02 3.327456000000000245e+02 3.336967000000000212e+02 3.340410999999999717e+02 3.340828000000000202e+02 3.341324000000000183e+02 3.343836999999999762e+02 3.348487000000000080e+02 3.354737999999999829e+02 3.360418999999999983e+02 3.369531000000000063e+02 3.378550000000000182e+02 3.385128000000000270e+02 3.389744000000000028e+02 3.398573999999999842e+02 3.405597999999999956e+02 3.407774000000000001e+02 3.413752999999999815e+02 3.414033999999999764e+02 3.416508999999999787e+02 3.425672000000000139e+02 3.435966000000000236e+02 3.441252999999999815e+02 3.445579000000000178e+02 3.451668999999999983e+02 3.462391000000000076e+02 3.472413000000000238e+02 -9.999000000000000000e+03 -9.999000000000000000e+03 -9.999000000000000000e+03 -9.999000000000000000e+03 -9.999000000000000000e+03 -9.999000000000000000e+03 -9.999000000000000000e+03 -9.999000000000000000e+03 -9.999000000000000000e+03 -9.999000000000000000e+03 -9.999000000000000000e+03 -9.999000000000000000e+03 -9.999000000000000000e+03 -9.999000000000000000e+03 -9.999000000000000000e+03 -9.999000000000000000e+03 -9.999000000000000000e+03 -9.999000000000000000e+03 -9.999000000000000000e+03 -9.999000000000000000e+03
-9.999000000000000000e+03 -9.999000000000000000e+03 -9.999000000000000000e+03 -9.999000000000000000e+03 -9.999000000000000000e+03 -9.999000000000000000e+03 -9.999000000000000000e+03 3.017373999999999796e+02 3.017982999999999834e+02 3.013562000000000012e+02 3.014298000000000002e+02 3.022500000000000000e+02 3.029083999999999719e+02 3.039676000000000045e+02 3.044431000000000154e+02 3.041499000000000024e+02 3.035964000000000169e+02 3.023165999999999940e+02 3.004886999999999944e+02 3.002414999999999736e+02 3.006738000000000284e+02 3.017087000000000216e+02 3.018888999999999783e+02 3.020554000000000201e+02 3.029694000000000074e+02 3.029433999999999969e+02 3.014225000000000136e+02 3.005989999999999895e+02 3.001186999999999898e+02 2.996281999999999925e+02 2.986825999999999794e+02 2.971711999999999989e+02 2.957782000000000266e+02 2.949610999999999876e+02 2.946039999999999850e+02 2.944327999999999861e+02 2.938510999999999740e+02 2.930953000000000088e+02 2.924411000000000058e+02 2.919664000000000215e+02 2.917470000000000141e+02 2.914984999999999786e+02 2.914576999999999884e+02 2.917896999999999821e+02 2.931139000000000010e+02 2.949644999999999868e+02 2.960896000000000186e+02 2.974397000000000162e+02 2.989633999999999787e+02 3.005326000000000022e+02 3.017060000000000173e+02 3.032810000000000059e+02 3.053441000000000258e+02 3.072864000000000146e+02 3.091578999999999837e+02 3.109483999999999924e+02 3.128211000000000013e+02 3.142121000000000208e+02 3.155169999999999959e+02 3.168294000000000210e+02 3.183389999999999986e+02 3.200294999999999845e+02 3.214793000000000234e+02 3.226603000000000065e+02 3.239886999999999944e+02 3.252427000000000135e+02 3.265314999999999941e+02 3.280273000000000252e+02 3.292271000000000072e+02 3.303523999999999887e+02 3.314664000000000215e+02 3.325529000000000224e+02 3.329728999999999814e+02 3.331721999999999753e+02 3.334868000000000166e+02 3.339180000000000064e+02 3.343879000000000019e+02 3.349227000000000203e+02 3.355842999999999847e+02 3.364323999999999728e+02 3.373634999999999877e+02 3.381057999999999879e+02 3.386247000000000185e+02 3.393942000000000121e+02 3.399721000000000117e+02 3.403469000000000051e+02 3.409968000000000075e+02 3.413686999999999898e+02 3.419397999999999911e+02 3.427307999999999879e+02 3.433598000000000070e+02 3.437873999999999910e+02 3.442126999999999839e+02 3.447579999999999814e+02 3.459126999999999725e+02 3.471238000000000170e+02 -9.999000000000000000e+03 -9.999000000000000000e+03 -9.999000000000000000e+03 -9.999000000000000000e+03 -9.999000000000000000e+03 -9.999000000000000000e+03 -9.999000000000000000e+03 -9.999000000000000000e+03 -9.999000000000000000e+03 -9.999000000000000000e+03 -9.999000000000000000e+03 -9.999000000000000000e+03 -9.999000000000000000e+03 -9.999000000000000000e+03 -9.999000000000000000e+03 -9.999000000000000000e+03 -9.999000000000000000e+03 -9.999000000000000000e+03 -9.999000000000000000e+03 -9.999000000000000000e+03
-9.999000000000000000e+03 -9.999000000000000000e+03 -9.999000000000000000e+03 -9.999000000000000000e+03 -9.999000000000000000e+03 -9.999000000000000000e+03 -9.999000000000000000e+03 -9.999000000000000000e+03 3.027167000000000030e+02 3.023652000000000157e+02 3.022160000000000082e+02 3.019003999999999905e+02 3.026807999999999765e+02 3.041836000000000126e+02 3.044438999999999851e+02 3.049945000000000164e+02 3.051077999999999975e+02 3.036895000000000095e+02 3.025015999999999963e+02 3.027900999999999954e+02 3.025165000000000077e+02 3.031802999999999884e+02 3.037119000000000142e+02 3.040559000000000083e+02 3.046632999999999925e+02 3.039044000000000096e+02 3.023946000000000254e+02 3.015212999999999965e+02 3.008666000000000054e+02 3.003091999999999757e+02 2.995332000000000221e+02 2.979354999999999905e+02 2.964479000000000042e+02 2.955890999999999735e+02 2.952663000000000011e+02 2.948691999999999780e+02 2.942678999999999974e+02 2.935387999999999806e+02 2.928485999999999763e+02 2.924504000000000019e+02 2.922196999999999889e+02 2.919750000000000227e+02 2.919549999999999841e+02 2.924057000000000244e+02 2.936050000000000182e+02 2.951587999999999852e+02 2.958691000000000031e+02 2.972971999999999753e+02 2.984182000000000130e+02 2.997923999999999864e+02 3.011188999999999965e+02 3.023639999999999759e+02 3.040024999999999977e+02 3.061591999999999985e+02 3.082572000000000116e+02 3.100708000000000197e+02 3.117167999999999779e+02 3.129932000000000016e+02 3.143066999999999780e+02 3.158163000000000125e+02 3.171186999999999898e+02 3.184644999999999868e+02 3.198276999999999930e+02 3.213088999999999942e+02 3.226202999999999861e+02 3.237509000000000015e+02 3.249255999999999744e+02 3.262685000000000173e+02 3.274578000000000202e+02 3.287259000000000242e+02 3.299830999999999790e+02 3.312371999999999730e+02 3.317798999999999978e+02 3.321549999999999727e+02 3.327549000000000206e+02 3.334542999999999893e+02 3.339495999999999754e+02 3.344927999999999884e+02 3.351766000000000076e+02 3.360724999999999909e+02 3.370117000000000189e+02 3.376761000000000195e+02 3.381883000000000266e+02 3.389377000000000066e+02 3.394427000000000021e+02 3.400772999999999797e+02 3.406623999999999910e+02 3.412001000000000204e+02 3.421043000000000234e+02 3.428498999999999910e+02 3.432511999999999830e+02 3.435754000000000019e+02 3.438964000000000283e+02 3.443654000000000224e+02 3.454531000000000063e+02 3.467382999999999811e+02 3.468772999999999911e+02 -9.999000000000000000e+03 -9.999000000000000000e+03 -9.999000000000000000e+03 -9.999000000000000000e+03 -9.999000000000000000e+03 -9.999000000000000000e+03 -9.999000000000000000e+03 -9.999000000000000000e+03 -9.999000000000000000e+03 -9.999000000000000000e+03 -9.999000000000000000e+03 -9.999000000000000000e+03 -9.999000000000000000e+03 -9.999000000000000000e+03 -9.999000000000000000e+03 -9.999000000000000000e+03 -9.999000000000000000e+03 -9.999000000000000000e+03 -9.999000000000000000e+03
-9.999000000000000000e+03 -9.999000000000000000e+03 -9.999000000000000000e+03 -9.999000000000000000e+03 -9.999000000000000000e+03 -9.999000000000000000e+03 -9.999000000000000000e+03 -9.999000000000000000e+03 3.033521000000000072e+02 3.033172000000000139e+02 3.028913000000000011e+02 3.023458999999999719e+02 3.033168000000000006e+02 3.042397000000000276e+02 3.043084000000000060e+02 3.055883000000000038e+02 3.063448000000000206e+02 3.058899000000000115e+02 3.056562999999999874e+02 3.056521999999999935e+02 3.049979000000000156e+02 3.063217000000000212e+02 3.072640000000000100e+02 3.068933000000000106e+02 3.068097000000000207e+02 3.055962999999999852e+02 3.041179999999999950e+02 3.028061999999999898e+02 3.017112999999999943e+02 3.009576000000000136e+02 3.002817999999999756e+02 2.986850000000000023e+02 2.971938000000000102e+02 2.962470999999999890e+02 2.956748000000000047e+02 2.951048999999999864e+02 2.946086000000000240e+02 2.938856000000000108e+02 2.932726999999999862e+02 2.930025999999999726e+02 2.927178000000000111e+02 2.924721999999999866e+02 2.923636000000000195e+02 2.928401000000000067e+02 2.939221999999999753e+02 2.952137000000000171e+02 2.958269000000000233e+02 2.968570000000000277e+02 2.979599999999999795e+02 2.991211999999999875e+02 3.005081000000000131e+02 3.017758000000000038e+02 3.031698000000000093e+02 3.052434000000000083e+02 3.073983999999999810e+02 3.093170000000000073e+02 3.108604000000000269e+02 3.119941999999999780e+02 3.132789000000000215e+02 3.148068999999999846e+02 3.161453000000000202e+02 3.172054999999999723e+02 3.183068999999999846e+02 3.198913000000000011e+02 3.213149000000000228e+02 3.225052999999999770e+02 3.236732000000000085e+02 3.247909999999999968e+02 3.259501000000000204e+02 3.272255000000000109e+02 3.286073000000000093e+02 3.298428999999999860e+02 3.306028999999999769e+02 3.311798000000000002e+02 3.319814000000000078e+02 3.329184999999999945e+02 3.336510999999999854e+02 3.342746999999999957e+02 3.348260000000000218e+02 3.356535999999999831e+02 3.364811000000000263e+02 3.370190999999999804e+02 3.376304000000000087e+02 3.383595000000000255e+02 3.388107999999999720e+02 3.396150999999999840e+02 3.403247999999999820e+02 3.412336000000000240e+02 3.422923000000000116e+02 3.428614999999999782e+02 3.431064000000000078e+02 3.434096999999999866e+02 3.436866999999999734e+02 3.441019000000000005e+02 3.449904999999999973e+02 3.460163000000000011e+02 3.462916999999999916e+02 -9.999000000000000000e+03 -9.999000000000000000e+03 -9.999000000000000000e+03 -9.999000000000000000e+03 -9.999000000000000000e+03 -9.999000000000000000e+03 -9.999000000000000000e+03 -9.999000000000000000e+03 -9.999000000000000000e+03 -9.999000000000000000e+03 -9.999000000000000000e+03 -9.999000000000000000e+03 -9.999000000000000000e+03 -9.999000000000000000e+03 -9.999000000000000000e+03 -9.999000000000000000e+03 -9.999000000000000000e+03 -9.999000000000000000e+03 -9.999000000000000000e+03
-9.999000000000000000e+03 -9.999000000000000000e+03 -9.999000000000000000e+03 -9.999000000000000000e+03 -9.999000000000000000e+03 -9.999000000000000000e+03 -9.999000000000000000e+03 -9.999000000000000000e+03 -9.999000000000000000e+03 3.035108999999999924e+02 3.037561000000000035e+02 3.034950999999999794e+02 3.039710999999999785e+02 3.045654999999999859e+02 3.048462999999999852e+02 3.066147000000000276e+02 3.078433999999999742e+02 3.081338999999999828e+02 3.083294000000000210e+02 3.080156000000000063e+02 3.084266000000000076e+02 3.105944000000000074e+02 3.103423999999999978e+02 3.093980999999999995e+02 3.085489999999999782e+02 3.068299000000000092e+02 3.055317000000000007e+02 3.041222999999999956e+02 3.026499000000000024e+02 3.015865000000000009e+02 3.007239000000000146e+02 2.992062000000000239e+02 2.979343000000000075e+02 2.969005000000000223e+02 2.960237000000000194e+02 2.952884999999999991e+02 2.947977999999999952e+02 2.942076999999999884e+02 2.938129000000000133e+02 2.936204000000000178e+02 2.932543000000000006e+02 2.929610999999999876e+02 2.928709000000000060e+02 2.931915000000000191e+02 2.940744000000000256e+02 2.952638000000000034e+02 2.962341999999999871e+02 2.969397999999999911e+02 2.980308999999999742e+02 2.991419999999999959e+02 3.000115999999999872e+02 3.013356999999999744e+02 3.030029000000000110e+02 3.046985999999999990e+02 3.067203000000000088e+02 3.086974000000000160e+02 3.102248000000000161e+02 3.113942000000000121e+02 3.125976999999999748e+02 3.139746999999999844e+02 3.153156999999999925e+02 3.162946000000000026e+02 3.172250999999999976e+02 3.184630000000000223e+02 3.197549000000000206e+02 3.210274000000000001e+02 3.223650999999999840e+02 3.236689999999999827e+02 3.249753000000000043e+02 3.262087999999999965e+02 3.274585999999999899e+02 3.285307000000000244e+02 3.294101999999999748e+02 3.302203999999999837e+02 3.310865000000000009e+02 3.321587999999999852e+02 3.333231999999999857e+02 3.341216999999999757e+02 3.346585000000000036e+02 3.351782999999999788e+02 3.358217999999999961e+02 3.364744000000000028e+02 3.370557000000000016e+02 3.376677999999999997e+02 3.384619999999999891e+02 3.394642999999999802e+02 3.403150999999999726e+02 3.415067000000000235e+02 3.423690000000000282e+02 3.428607999999999834e+02 3.430163999999999760e+02 3.432819000000000074e+02 3.436313000000000102e+02 3.439628000000000156e+02 3.445865000000000009e+02 3.455013999999999896e+02 3.460301000000000045e+02 -9.999000000000000000e+03 -9.999000000000000000e+03 -9.999000000000000000e+03 -9.999000000000000000e+03 -9.999000000000000000e+03 -9.999000000000000000e+03 -9.999000000000000000e+03 -9.999000000000000000e+03 -9.999000000000000000e+03 -9.999000000000000000e+03 -9.999000000000000000e+03 -9.999000000000000000e+03 -9.999000000000000000e+03 -9.999000000000000000e+03 -9.999000000000000000e+03 -9.999000000000000000e+03 -9.999000000000000000e+03 -9.999000000000000000e+03 -9.999000000000000000e+03
-9.999000000000000000e+03 -9.999000000000000000e+03 -9.999000000000000000e+03 -9.999000000000000000e+03 -9.999000000000000000e+03 -9.999000000000000000e+03 -9.999000000000000000e+03 -9.999000000000000000e+03 -9.999000000000000000e+03 -9.999000000000000000e+03 -9.999000000000000000e+03 3.048688000000000216e+02 3.047837999999999852e+02 3.056075999999999908e+02 3.061879999999999882e+02 3.080604000000000156e+02 3.099914999999999736e+02 3.104526999999999930e+02 3.109028000000000134e+02 3.107551000000000272e+02 3.114726999999999748e+02 3.132574999999999932e+02 3.122243000000000279e+02 3.106884999999999764e+02 3.095873000000000275e+02 3.081673000000000116e+02 3.067228000000000065e+02 3.053500999999999976e+02 3.038367999999999824e+02 3.023442999999999756e+02 3.012823999999999955e+02 2.998038000000000238e+02 2.985676000000000272e+02 2.972968000000000188e+02 2.963091999999999757e+02 2.955908999999999764e+02 2.950618999999999801e+02 2.945966999999999985e+02 2.943430000000000177e+02 2.941462999999999965e+02 2.937678000000000225e+02 2.933985999999999876e+02 2.933050999999999817e+02 2.935038999999999874e+02 2.942851999999999748e+02 2.954544999999999959e+02 2.970291000000000281e+02 2.976204999999999927e+02 2.981632999999999925e+02 2.989189000000000078e+02 2.999918000000000120e+02 3.017835000000000036e+02 3.032871000000000095e+02 3.048792000000000257e+02 3.066141000000000076e+02 3.085097999999999843e+02 3.100006999999999948e+02 3.110636999999999830e+02 3.122312999999999761e+02 3.134411999999999807e+02 3.146301000000000272e+02 3.156592999999999734e+02 3.165695999999999799e+02 3.174508999999999901e+02 3.184463000000000079e+02 3.196211000000000126e+02 3.209726999999999748e+02 3.226068000000000211e+02 3.240514000000000010e+02 3.253045999999999935e+02 3.264728000000000065e+02 3.273505999999999858e+02 3.282162999999999897e+02 3.291610999999999763e+02 3.302131999999999721e+02 3.315937999999999874e+02 3.326648999999999887e+02 3.335923000000000229e+02 3.342398000000000025e+02 3.348227999999999724e+02 3.356093000000000188e+02 3.365527000000000157e+02 3.373383999999999787e+02 3.379431999999999903e+02 3.383725000000000023e+02 3.390690999999999917e+02 3.402989000000000033e+02 3.415652999999999793e+02 3.421786000000000172e+02 3.426929000000000087e+02 3.429834999999999923e+02 3.433032999999999788e+02 3.436150000000000091e+02 3.437397000000000276e+02 3.442547999999999888e+02 3.450634999999999764e+02 3.456347999999999843e+02 3.457096999999999980e+02 -9.999000000000000000e+03 -9.999000000000000000e+03 -9.999000000000000000e+03 -9.999000000000000000e+03 -9.999000000000000000e+03 -9.999000000000000000e+03 -9.999000000000000000e+03 -9.999000000000000000e+03 -9.999000000000000000e+03 -9.999000000000000000e+03 -9.999000000000000000e+03 -9.999000000000000000e+03 -9.999000000000000000e+03 -9.999000000000000000e+03 -9.999000000000000000e+03 -9.999000000000000000e+03 -9.999000000000000000e+03 -9.999000000000000000e+03
-9.999000000000000000e+03 -9.999000000000000000e+03 -9.999000000000000000e+03 -9.999000000000000000e+03 -9.999000000000000000e+03 -9.999000000000000000e+03 -9.999000000000000000e+03 -9.999000000000000000e+03 -9.999000000000000000e+03 -9.999000000000000000e+03 -9.999000000000000000e+03 -9.999000000000000000e+03 3.060738999999999805e+02 3.067282000000000153e+02 3.072432999999999765e+02 3.087930000000000064e+02 3.104549000000000092e+02 3.111358999999999924e+02 3.127275000000000205e+02 3.135523000000000025e+02 3.135885000000000105e+02 3.145803999999999974e+02 3.141075000000000159e+02 3.123242000000000189e+02 3.112556000000000154e+02 3.100735999999999990e+02 3.082053999999999974e+02 3.066422000000000025e+02 3.052448999999999728e+02 3.034363999999999919e+02 3.020522000000000276e+02 3.005889999999999986e+02 2.990638999999999896e+02 2.976238000000000170e+02 2.965960999999999785e+02 2.958831000000000131e+02 2.953883999999999901e+02 2.949318999999999846e+02 2.947146999999999935e+02 2.945683000000000220e+02 2.943177000000000021e+02 2.939114000000000146e+02 2.937776000000000067e+02 2.938784999999999741e+02 2.941675999999999931e+02 2.961813000000000216e+02 2.981397000000000048e+02 2.980923999999999978e+02 2.982361000000000217e+02 2.987681000000000040e+02 2.999669000000000096e+02 3.016818999999999846e+02 3.032590000000000146e+02 3.049542000000000144e+02 3.068296000000000276e+02 3.086632000000000176e+02 3.101945999999999799e+02 3.111093999999999937e+02 3.120149999999999864e+02 3.129669000000000096e+02 3.140405999999999835e+02 3.152508000000000266e+02 3.160745999999999754e+02 3.167183999999999742e+02 3.175090000000000146e+02 3.184757999999999925e+02 3.196453000000000202e+02 3.212497000000000185e+02 3.228238000000000056e+02 3.241530999999999949e+02 3.252348999999999819e+02 3.260991999999999962e+02 3.272461000000000126e+02 3.283328000000000202e+02 3.295203999999999951e+02 3.308546000000000049e+02 3.318582000000000107e+02 3.331892000000000280e+02 3.341268000000000029e+02 3.350785000000000196e+02 3.359861000000000217e+02 3.370735999999999990e+02 3.379134000000000242e+02 3.386143999999999892e+02 3.391669999999999732e+02 3.397019000000000233e+02 3.405149999999999864e+02 3.411952999999999747e+02 3.417932999999999879e+02 3.423450000000000273e+02 3.429741000000000213e+02 3.434585000000000150e+02 3.436288999999999874e+02 3.436016999999999939e+02 3.440163000000000011e+02 3.445665000000000191e+02 3.451231000000000222e+02 3.454540999999999826e+02 -9.999000000000000000e+03 -9.999000000000000000e+03 -9.999000000000000000e+03 -9.999000000000000000e+03 -9.999000000000000000e+03 -9.999000000000000000e+03 -9.999000000000000000e+03 -9.999000000000000000e+03 -9.999000000000000000e+03 -9.999000000000000000e+03 -9.999000000000000000e+03 -9.999000000000000000e+03 -9.999000000000000000e+03 -9.999000000000000000e+03 -9.999000000000000000e+03 -9.999000000000000000e+03 -9.999000000000000000e+03 -9.999000000000000000e+03
-9.999000000000000000e+03 -9.999000000000000000e+03 -9.999000000000000000e+03 -9.999000000000000000e+03 -9.999000000000000000e+03 -9.999000000000000000e+03 -9.999000000000000000e+03 -9.999000000000000000e+03 -9.999000000000000000e+03 -9.999000000000000000e+03 -9.999000000000000000e+03 -9.999000000000000000e+03 3.080203999999999951e+02 3.080889000000000237e+02 3.077979000000000269e+02 3.089159999999999968e+02 3.102986000000000217e+02 3.114805999999999813e+02 3.139418000000000006e+02 3.157810000000000059e+02 3.150214000000000283e+02 3.159427999999999770e+02 3.160140999999999849e+02 3.143276000000000181e+02 3.132715999999999781e+02 3.120414000000000101e+02 3.103946000000000254e+02 3.084655999999999949e+02 3.066499999999999773e+02 3.045523999999999774e+02 3.028691999999999780e+02 3.012701999999999884e+02 2.995898000000000252e+02 2.980414000000000101e+02 2.969341999999999757e+02 2.961490999999999758e+02 2.956446000000000254e+02 2.953005999999999744e+02 2.950552999999999884e+02 2.949739999999999895e+02 2.950282000000000266e+02 2.947468999999999824e+02 2.945233999999999810e+02 2.945953000000000088e+02 2.945835000000000150e+02 2.962907999999999902e+02 2.990129000000000019e+02 2.983657999999999788e+02 2.981211999999999875e+02 2.987502000000000066e+02 2.998888999999999783e+02 3.013441000000000258e+02 3.028290999999999826e+02 3.047663000000000011e+02 3.068854999999999791e+02 3.087898999999999887e+02 3.104041000000000281e+02 3.114300999999999817e+02 3.122033000000000129e+02 3.129336999999999875e+02 3.136942000000000235e+02 3.146714999999999804e+02 3.154275999999999840e+02 3.160285999999999831e+02 3.167017000000000166e+02 3.175810999999999922e+02 3.187307000000000130e+02 3.199560000000000173e+02 3.210960999999999785e+02 3.222497999999999934e+02 3.234282999999999788e+02 3.248183000000000220e+02 3.262309999999999945e+02 3.273342000000000098e+02 3.286351999999999975e+02 3.299134999999999991e+02 3.313535999999999717e+02 3.328598000000000070e+02 3.341118000000000166e+02 3.351818999999999846e+02 3.361467999999999847e+02 3.372235000000000014e+02 3.382015000000000100e+02 3.390586999999999875e+02 3.396379000000000019e+02 3.405776999999999930e+02 3.410251000000000090e+02 3.411168000000000120e+02 3.414458999999999946e+02 3.420246999999999957e+02 3.425837000000000216e+02 3.431383999999999901e+02 3.435581999999999994e+02 3.435822000000000003e+02 3.438210000000000264e+02 3.442133000000000038e+02 3.448149999999999977e+02 -9.999000000000000000e+03 -9.999000000000000000e+03 -9.999000000000000000e+03 -9.999000000000000000e+03 -9.999000000000000000e+03 -9.999000000000000000e+03 -9.999000000000000000e+03 -9.999000000000000000e+03 -9.999000000000000000e+03 -9.999000000000000000e+03 -9.999000000000000000e+03 -9.999000000000000000e+03 -9.999000000000000000e+03 -9.999000000000000000e+03 -9.999000000000000000e+03 -9.999000000000000000e+03 -9.999000000000000000e+03 -9.999000000000000000e+03 -9.999000000000000000e+03
